# 3D point list with one line of data per point:
#   POINT3D_ID, X, Y, Z, R, G, B, ERROR, TRACK[] as (IMAGE_ID, POINT2D_IDX)
# Number of points: 344, mean track length: 10.826864147088866
4882 7.0784774570778799 2.0426433072206063 9.5148369188759254 139 136 130 0.43956166441797573 133 519 141 715 134 636 140 765 148 716
4883 6.1741961996607762 1.8076097280607621 9.0359644082876809 150 145 144 0.49271966399187589 133 434 134 432 141 716 140 719 148 762 55 272 60 271
5767 -6.1635490487824596 0.51174576308172937 12.064521000263928 1 1 5 1.4094450631759221 5 91 7 98 18 61 22 38 26 69 14 110 15 110 19 110 24 82 25 69 27 72 28 73
4884 5.9756818115549377 1.4551260900093441 8.932512335193131 156 151 148 0.26691564171587723 133 644 134 640 141 717 140 720 148 718 55 360 60 359
4886 0.43914063463207959 1.1808137418003839 5.7844855354362776 230 218 217 0.87885926184721441 127 418 141 743 128 416 130 417 140 748 148 745
4887 3.9194269965909423 0.62931353216751607 9.6920225808783265 214 210 210 1.3039602399814536 127 374 128 469 130 469 141 748 140 753 148 750
4888 3.6913700647580874 0.42692039998765569 10.032324139231596 139 139 141 0.53439719827759258 133 660 141 759 134 656 140 626 148 625
5258 5.4071748123206893 1.2058086117982334 6.9064607067259773 77 75 80 2.6403012196013873 57 290 58 301 141 795 59 291 140 774 148 772
4891 5.3923655438412883 6.35352722798872 3.8853848614217443 178 162 173 0.23384656138535781 133 618 134 614 141 783 140 883 148 866
4892 5.8032015259628933 6.1156094126655303 4.2230096526032472 107 95 107 0.82529061301154749 133 508 134 503 141 785 140 917 148 912
4893 5.5184374672896759 5.9673444670361366 4.1515843234790895 111 85 98 0.15609337563710166 127 494 128 494 130 494 141 786 140 922 148 915
4894 6.0039711014043027 2.0104460300556091 5.8110845350403881 35 28 22 1.9620886000780453 128 187 141 788 127 190 130 187 140 914 148 925 149 215 147 214 146 215
4896 3.7667145385382148 0.73226368801797492 9.8375967574294076 74 73 79 0.029902211195941511 127 462 128 463 130 463 141 806 140 785 148 783
4898 5.5205968626198958 0.044799420038599408 7.5381640602909226 127 123 112 0.13307409206982151 133 633 141 815 134 629 140 823 148 819
5202 6.1726898402065622 0.44179044755271657 7.5796244860093012 180 177 172 0.41952829410496689 58 302 128 192 130 192 57 289 127 195 59 292
4899 3.6723301643370347 4.5897188989895268 5.7446690723396561 205 202 200 1.5250923498078388 128 406 130 406 141 818 127 408 140 787 148 822 143 421 145 416
5713 -0.23047071596166568 0.3044010510782541 5.7132025309948808 224 204 181 1.0015639867063648 45 349 37 224 39 226
4902 0.5861235634787213 0.85409080133768478 5.6384776064845212 221 200 182 0.13032483318399363 133 654 134 651 141 860 140 864 148 862
4903 0.36037048203015587 2.3498986528420627 5.6091165209140907 148 137 128 0.57619619392017718 127 452 130 452 141 862 128 452 140 865 148 863 143 546 145 567
4904 4.0861114365819597 2.8071421982989198 5.0438738045763305 43 42 49 0.036033935865908667 133 404 134 404 141 875 140 780 148 833
4906 5.0500304917668206 3.6438419452079729 6.0436266432618559 8 3 12 0.20124380828669888 133 598 134 513 141 905 140 805 148 801
5576 -0.0055158590973403707 0.24713564887326869 5.7013117377669431 222 219 216 1.9962965735556943 129 153 132 154 121 184 123 192 122 182 126 334 124 330 125 145 131 143 49 94 48 94 47 94
4910 5.0240881536890649 6.0570251265716104 4.9949505943586869 194 189 186 1.5131040227799299 127 400 128 398 130 398 133 588 134 509 141 956 140 956 148 947 58 428 57 121 58 129 59 121
4911 0.69367067236841906 0.6814687836569272 5.855386933604052 194 173 156 0.022881033582572374 133 681 134 678 141 957 140 952 148 943
4915 5.0699216117772554 7.6245410943657896 2.0385487002227554 171 166 160 0.091038244736539473 141 314 140 316 148 315 133 490 134 486
5799 -1.0168603806652465 6.9259526501475657 2.1350143312215244 153 153 153 2.1274556112073104 2 91 6 91 13 82 18 100 22 99 24 232 27 204 25 207 26 209 28 204
4916 5.7316670784016042 1.8949918015929228 6.9452222306927522 153 148 145 1.5971754698635754 130 273 141 388 140 391 127 273 128 273 148 389
5793 -0.14635505993420933 2.0461873876571106 5.9553379128875541 119 114 111 0.83139145207004361 2 181 6 186 13 181 18 339 22 337 27 325 28 327
4918 1.837863172748913 -1.5529418448569623 6.8196882073698593 198 196 188 1.5589929751048672 127 40 141 10 140 10 130 41 128 41 148 10
4919 4.1084699303910481 -0.042438012586577707 9.4985304106752952 198 196 184 1.384241657030334 133 79 134 81 141 39 140 39 148 39
5290 4.5710591728372254 0.24402173530011406 7.3266429897827772 195 190 187 0.33178190441546501 134 184 143 138 133 179 145 130
4923 6.3581037607316446 3.3397853401449136 6.2861624320241294 64 56 54 0.58135985463697437 133 97 134 100 141 192 140 194 148 193 58 47 57 49 59 48 143 224 145 232
5807 4.1846213888750885 2.648857007954021 3.8293137747303474 129 123 126 2.8768472189614469 5 235 18 233 7 253 22 233
4924 2.5754149872609173 -1.5056585010148804 7.4505106237512848 165 156 147 0.99463076627444424 133 163 141 206 140 206 148 204
4928 5.4096237535276126 1.2052406828777733 7.2253539655304264 160 155 152 1.0836521437661613 133 229 141 380 140 364 148 381
4929 5.0824088583361773 4.2839585134812062 6.8567538590635646 130 126 115 1.2945664197039484 127 218 128 214 130 217 141 371 140 374 148 372 55 138 60 138 58 147 57 164 59 198
4936 6.6553261052353534 7.4813613359051665 3.1628545391792748 87 73 73 2.699775832925329 127 188 128 185 130 185 141 240 140 242 148 240
4940 5.5621121756752077 1.4535550363613887 5.5959252343071064 2 0 1 1.5320801447705501 128 435 140 117 141 115 148 117 127 499 130 435 143 290 145 317
5155 -0.39297148921627656 1.0374259295894064 6.057079105221062 137 115 99 0.79133530467182867 55 487 60 487 125 546 131 593 58 387 57 401 59 383
4946 4.1318077269842037 2.1401137071940077 4.2508621390850614 74 75 80 1.5203965237356396 133 492 140 654 141 651 148 652 134 488 143 581 145 543 149 455 147 454 146 456
4951 11.185244789691598 11.129680296326423 28.898697913768586 140 144 155 2.7241772562214677 127 175 128 173 140 474 141 475 148 474 130 173
4960 5.0660118471890776 4.4993636052338513 6.8988907735696401 199 191 189 2.7714097637907917 133 328 55 70 134 323 60 70
4961 6.5160238446530343 4.5471090257882203 6.9412163454123865 145 141 138 0.0064925246612494436 133 318 134 314 55 93 60 93
4962 -1.4261058610490736 -3.5733663054346416 3.8373304687332173 0 0 0 0.0015969260219536614 133 83 134 160
4963 4.5268560863299392 3.2766608173143013 6.9395306119511924 83 86 93 0.43251789403709129 140 290 141 290 148 288 55 115 60 115
4964 5.0453320420227987 4.0265411862640077 6.7064977528639069 172 173 169 0.52555538872189878 127 120 128 156 130 117 55 137 60 137 124 99 126 99
4968 -0.41067255637045191 0.16031293891512061 5.7562084008434198 207 186 169 0.80931839997210453 134 254 55 200 133 255 60 200 58 152 57 154 59 150
4970 1.0605743103021534 -1.0595706792025696 10.15285350530471 7 1 1 2.8663640932155574 125 407 131 400 60 220 55 220
5274 0.033097251956695647 1.061288601149631 5.7233492288529897 192 183 178 0.16226406646028926 140 68 141 65 143 77 148 68 145 77
4971 0.06748568641207503 0.30651117553215801 5.679452725783074 191 178 170 0.46781342420552041 127 229 128 228 130 228 55 222 60 222 46 155 51 155
5785 -2.6736792961086326 1.0611563966828503 7.7858558503634203 123 126 118 1.0339305092214326 14 177 15 177 19 177 18 245 27 296 28 298
4974 6.0184726612797137 1.2387522474174653 9.1809363044760737 215 216 217 1.2423263878712254 140 590 141 594 148 591 55 243 60 243 143 504 145 456
4975 5.5063721166187944 2.9527943478806526 7.9901274548674612 179 170 165 1.0437024949647333 127 287 128 286 130 287 133 332 134 328 55 244 60 244
4976 5.620231255659216 1.2731349516315922 8.5815828680030179 151 147 148 0.27792350360567331 133 520 134 482 55 246 60 246
4978 0.33954868754803619 1.0068631194302458 5.7155064803646001 227 223 214 1.3338578593905208 127 141 128 139 130 140 55 253 47 63 48 63 49 63 60 252 46 131 51 131
4980 6.5172558012509683 1.1212141296386302 9.1099428301225203 180 175 171 0.12597254662886007 133 430 134 429 55 268 60 267
5857 2.6684088934361769 5.2793961570330525 5.0637661505354767 184 181 174 0.38638007332329166 14 221 15 221 19 221 26 445 24 445 25 445 27 535 28 538
4982 6.4113837429041318 1.243045332485494 9.2283456053076574 207 206 212 1.2890779198107873 133 331 134 327 55 270 60 269 143 341 145 368
4983 6.091744776269663 1.8469942976311777 8.961995967157117 157 153 152 0.16336177872539059 140 587 141 591 55 273 148 588 60 272
4986 0.39794425454699306 0.29431505562405352 5.6367077488588864 226 214 202 0.5884935196818063 127 225 128 224 130 224 55 286 60 285
4987 0.5835190242360323 1.1331241444779971 5.6922853379877827 161 151 142 0.95575623036528112 127 326 128 325 130 326 133 567 134 565 55 287 60 286 46 208 51 208
4988 -0.45124209380155006 0.27619810455192828 5.8961703158644898 173 155 142 0.62913924571567148 125 618 131 589 55 313 60 312
4992 1.7162138083122862 -1.0945961727344538 11.52757382027205 0 0 0 2.1604088312639855 127 243 128 243 133 349 130 252 134 348
5139 5.1323541782015605 0.40137871911213924 7.3392725308814368 0 0 0 0.75093795891244675 127 348 128 346 130 346 140 704 141 701 148 702
4994 7.9605504362609052 1.7234815095515392 9.1417657700206352 204 201 193 0.32574045418767605 140 825 55 350 141 817 148 821 60 349
4995 6.1967242550716648 0.88958625631308141 9.7042343763443331 175 176 169 0.41349451378729585 140 840 141 833 148 837 55 363 60 340
4997 5.7122390089918511 1.416038949535898 9.0643705945078406 128 130 129 0.75806335619148157 133 526 134 532 140 838 141 831 148 835 55 365 60 364 149 406 147 405 146 407
4998 3.7862208768574082 4.9090400621780192 6.2150162384654415 101 94 101 1.8340971430962703 133 435 134 434 141 707 55 368 140 710 148 708 60 367
5652 2.2866784758644907 -0.72383161274602903 12.049824856703285 92 94 91 0.41866714031362795 45 299 50 297 40 144 42 144 38 145
4999 0.36778569377156789 1.1443551722535887 5.7377159134275768 187 178 169 1.133321327364136 127 419 128 417 130 418 133 540 134 549 55 386 60 385 46 236 51 236
5000 3.1377643550517131 2.4466152582325291 8.7263050745888187 200 199 195 0.48627054002955361 127 416 128 414 130 415 140 745 148 742 55 387 141 740 60 386
5006 -0.37012413218714502 -0.095085907128892255 5.9122540320440384 107 85 71 0.37033754536249369 127 444 128 444 130 444 55 434 60 433
5009 5.6120280539207323 0.94060105976091846 9.3231875779118436 227 221 223 0.56771776174942357 140 842 141 835 55 441 148 839 60 442
5219 8.3293952219263758 0.56838475082836482 9.045987617682874 178 175 172 1.2094456862222567 128 35 58 77 127 35 130 35 57 80 133 69 134 71 141 71 140 73 148 75 59 79
5010 5.1725510368764294 3.8689552825580189 6.8254517366561505 119 119 129 0.70866044198418243 140 953 148 955 55 442 60 455
5011 5.7793610938636499 1.715216388774611 9.1907696530688803 143 142 140 0.6757294810767831 133 648 134 644 55 443 60 443
5013 5.1294478266696188 3.7239462118168327 6.7721955643597109 108 108 110 1.1422682530924519 124 469 133 638 55 466 126 472 134 633 60 453
5014 -0.3742871112643954 -0.066243161270758522 5.8005959973452095 192 166 149 0.64059094036467445 127 425 128 423 130 424 55 483 60 483
5732 -2.9415084643972764 0.86376094977007312 8.7930240722381114 187 184 183 0.35783135654124626 91 113 2 36 86 113 88 113 6 36 13 36
5015 -0.48821286320071117 2.5282855368707327 6.0901572456191682 167 152 141 0.73902063630710513 128 427 130 428 55 494 127 370 60 494 58 350 57 354 59 343
5019 4.471621732675481 3.4636080115903622 7.4468311737589143 110 109 115 2.0502435062392466 121 45 122 47 123 46 126 65 124 53 131 51 125 52 130 42 127 59 128 42 55 86 127 103 128 103 130 103 133 125 134 127 141 88 140 89 148 88 60 86 58 86 57 85 59 88 40 29 42 27 38 27
5021 5.6159972472994717 3.5127051614249178 7.1848598604323035 120 115 112 1.928017101089915 121 178 122 176 123 186 126 243 124 244 131 219 125 220 55 136 133 515 134 523 141 575 140 571 148 572 133 324 134 320 60 136 143 322 145 350
5022 0.51317104694251636 0.32609710132409725 5.5789791529139743 193 180 170 2.1723402495787822 133 486 141 612 140 607 148 608 55 380 133 444 141 610 134 443 140 605 148 606 127 414 128 412 130 413 60 379 46 206 51 206
5740 -5.5576840317844072 1.3742456696787129 10.685305625865604 93 95 94 0.67323110260562891 5 141 7 138 2 223 6 221 13 223 27 293 18 274 22 273 28 382
5023 -0.55240765243674694 2.9413645500970373 6.245687127944068 187 173 166 1.9852422469569659 121 287 122 285 123 290 126 327 124 325 131 420 125 427 49 189 48 189 47 189 130 302 128 301 55 463 130 241 141 619 127 252 128 241 140 701 148 699 60 497
5686 -1.1679568971316816 0.47113716035133257 11.179921632442968 18 36 38 0.3450998190415015 38 4 40 4 42 4 37 3 39 3
5025 -0.51617843967106103 2.7485512255633675 5.9361395911907504 149 129 112 2.3967763382102403 129 120 132 120 121 146 123 148 122 146 131 340 125 344 130 62 45 73 50 50 127 64 128 62 140 69 141 67 148 69 55 43 124 327 126 329 45 235 50 239 55 492 60 43 58 395 60 492 57 394 59 390
5171 -0.53465678911823811 3.5418358341851688 6.7820003141789176 213 204 199 1.9703006260119542 47 326 48 326 49 326 58 204 57 202 59 205
5026 -0.38244231912420301 4.1868862108687761 7.4391807681044222 178 161 146 1.4660796045915441 121 284 122 282 123 287 126 164 124 135 48 169 49 169 47 169 130 50 127 51 128 50 55 41 60 41 59 95
5034 5.3418272417445216 2.848239183132343 6.9959461833851364 93 88 85 1.1601585314226512 55 120 133 181 134 186 60 120 149 63 147 63 146 63
5123 6.0458872888544022 2.5136372429964124 6.6079869932696509 164 159 156 0.28877885276598553 127 372 128 370 130 371 58 229 57 283 59 298
5042 5.2748849274295004 0.58355065460537958 8.0273135855836077 0 0 0 0.29483944013176483 55 267 131 538 125 472
5051 6.1292242374225792 0.99214601494157739 9.4751515480535495 165 166 161 1.1186577580341039 55 340 148 836 60 361 140 839 141 832
5053 1.297025881562456 5.1605928011759525 6.3522322211852993 199 187 187 0.23274732915179067 55 392 148 332 60 391 140 334 141 367
5718 -1.0322651957953313 2.11237166145989 5.6723776030614754 170 148 124 2.4275581579621779 37 1 45 87 50 93 39 1
5057 5.9937265351784177 1.4548795795255138 9.0321270364516888 113 111 112 0.40051682596846305 55 437 140 588 60 437 141 592 148 589
5716 0.92818916871036206 2.0006608762729994 5.6851289379532819 218 213 208 0.99099015326206585 38 0 40 0 42 0 37 0 39 0
5413 -1.3746314656722058 0.1703910493350527 10.463853793374552 87 93 110 1.4035392256023382 47 131 48 131 49 131 46 172 51 172
5063 1.1944909568021143 -0.77202770264516374 11.021241523814311 183 183 183 0.49613776952861821 55 506 131 216 60 507 125 215
5726 0.63137328808278081 1.1744573847939686 5.7251297318557377 188 176 160 0.14651512068189301 37 192 45 184 39 199 50 186
5065 1.676669868791353 -1.0267760282810605 8.1260849391263879 89 89 91 0.40692793779443942 55 4 60 4 58 2 57 2 59 2 46 3 51 3
5067 1.5374941077789857 2.152432907588202 5.7679297757793595 226 218 216 0.87308693606538468 55 13 60 13 58 5 57 5 59 5
5069 3.0289581473991416 -1.1844364467474888 8.1180983779957732 0 0 2 0.18605623861950785 55 11 60 11 58 7 57 7 59 7
5724 0.58872957800976689 1.0059349631359518 5.7171762246621922 218 213 211 0.54704752095190656 37 98 45 151 50 158 39 99
5421 0.59897591777557324 0.14191823349707947 5.5343815834743921 230 209 190 1.8010341491136916 60 458 133 533 134 540 46 207 55 458 51 207
5071 0.61643148140185755 0.32171804079620098 5.5830844602698715 205 191 177 0.31650425841091806 141 9 58 10 140 9 148 9 57 11 59 10
5073 3.9176629298508359 -0.48720152431193714 8.3590669152351875 197 192 188 1.254761282816887 55 18 60 18 58 17 57 10 59 17
5796 4.2641850072214114 3.2691057213917061 4.6085943921653243 58 51 59 0.31111295638251629 2 124 6 126 13 125 15 128 18 368 14 128 19 128 22 367
5429 -0.67603999484167709 2.6292278870909294 6.7002645000555594 191 166 144 1.5023168429958618 46 25 57 139 58 121 51 25
5079 1.114742530929077 0.21351828705397963 9.1674458428900998 121 121 121 0.38143775589625101 55 25 60 25 58 37 57 37 59 37 46 24 51 24
5291 0.66275867253838749 2.6737126076441182 5.5455250581709299 197 185 169 0.93422796371988059 140 304 141 201 148 302 143 140 145 132 149 132 147 131 146 132
5082 3.0246806578781391 -1.4285567095194385 7.7465415170591303 85 88 95 1.0023297170759251 55 36 60 36 58 53 57 54 59 47
5083 1.9791469665914123 -0.39339647875160511 9.1948811139880604 178 168 167 1.9144132337394051 55 31 60 31 58 56 57 57 59 56 51 22 46 22
5085 1.3178650267508913 0.19355497648831774 9.0545209175177419 195 190 187 1.0929570569864948 55 78 60 78 58 58 57 59 59 58 46 39 51 39
5804 -2.4901081271389867 5.8038803769894418 2.7852096192251019 186 177 172 0.90740708131607239 2 33 6 32 13 31 18 53 22 53 26 39 24 66 25 40 27 68 28 69
5437 0.80320804095909426 -0.19886351180460488 8.7968065391787551 141 137 134 2.1592491754127687 46 124 60 170 55 170 51 124
5087 1.3775193704229827 -1.5906741829505775 7.7375864558470706 181 189 203 0.56994851825347348 55 75 60 75 58 65 57 69 59 67
5088 1.5395277500078437 -1.0758017523295347 8.1941886248535489 26 27 32 1.363726088598096 55 51 60 51 58 66 57 71 59 68 46 68 51 68
5750 -6.7923163403119737 2.0111844054415258 9.5049377921895459 0 0 5 1.7776625889219801 5 39 7 50 14 56 15 56 19 56 18 41 6 61 2 61 13 61 22 41 26 52 24 42 25 53 27 52 28 53
5089 1.5026831663387787 -0.86913918061440243 8.2559434868458688 80 72 70 1.0135255258105791 55 81 60 81 58 67 57 72 59 69 46 84 51 84
5235 5.3597432617358898 1.4981804328811072 6.9970786732353929 205 201 198 1.3537622436576955 57 229 58 235 141 690 59 229 140 693 148 691
5090 1.5752047592843166 -0.62084153163904732 9.2304453135396347 148 146 147 0.40399277345846052 55 79 60 79 58 69 57 75 59 71 46 56 51 56
5093 1.3234431091500871 -0.27871789145827641 9.015741550358694 94 93 92 0.49337496216721649 55 53 60 53 58 81 57 81 59 82
5094 1.4512125529361546 -1.3190937073155429 7.3983548823575216 76 75 73 2.4063348540381413 55 111 60 111 58 83 57 67 59 84 46 88 51 88
5095 2.5593629529751438 -1.5448478870356395 7.2686179999336362 128 128 130 1.0541367786870133 55 141 60 141 58 88 57 87
5758 0.77922302303154167 1.108188288492425 6.4329944681870819 194 170 145 0.5057367703141108 2 3 6 3 13 3 14 3 15 3 19 3 18 5 22 5
5097 1.5341523762698295 -1.411109907697244 8.0946863470588433 0 5 15 2.1078216993520593 55 50 60 50 58 94 57 93 59 94
5098 1.7778562357094378 0.74285336397784218 10.307245608313927 126 126 121 1.1846921103378603 47 159 48 159 55 169 60 169 49 159 40 105 42 116 38 104
5099 8.5534214751355488 1.5719089469186913 9.2658968014598564 137 136 132 0.51564518299973061 128 68 148 175 127 68 130 68 140 176 141 174 143 102 145 103
5101 1.3856482559766803 -1.434342566828559 7.3623634927234569 130 133 140 1.3643366165171724 55 151 60 151 58 114 57 134 59 134 46 69 51 69
5756 4.1503348145735197 2.8719546121687092 4.5600562229830102 220 212 210 1.1286276001803366 2 110 6 110 7 79 13 108 14 117 15 117 19 117 5 62 18 236 22 236 26 250 24 249 25 248 28 376 27 374
5103 2.4752102679108345 -0.18562483237856547 9.1596590560862623 70 69 67 0.92160475201838177 55 194 60 194 58 118 57 136 59 136
5702 -0.0063991407424030021 1.8034439721887767 5.7552496889107676 219 212 196 0.18181740342712382 50 233 37 140 39 142
5105 1.3940014662506324 -1.1608712357150097 8.2715608750905272 96 94 102 1.5958218760446086 55 106 60 106 58 120 57 138 59 138 46 82 51 82
5187 2.9607933282434518 0.8128755089339228 8.9618142223693642 0 0 0 0.49497621696162969 55 467 125 154 131 152 60 467
5106 2.9004377452950907 0.22791180018745158 9.4144799297119768 189 188 189 0.10619093744334314 55 109 60 109 58 126 57 115 59 135
5107 5.5535690121905406 2.2628016711581349 8.2507036485626823 202 197 193 1.6334838732608288 148 293 58 151 140 295 141 295 57 167 134 242 133 242 59 154
5110 4.8736061360141862 1.4911301286793766 11.168144961127473 111 110 116 2.1359433939627688 140 350 141 336 148 347 58 158 57 169 59 172
5111 4.7064142979450541 4.5861972601977383 5.724939939061553 170 166 156 0.81929957720807511 140 182 141 180 148 181 58 178 57 149 59 196
5710 -0.23506534938129225 0.33192658263614433 5.7238966477188162 224 203 184 0.30846817394734338 45 350 37 200 39 202
5113 -0.048000813774385774 2.4521198420457573 8.0139185302009146 195 185 183 1.1209031205078777 133 261 134 260 58 189 57 157 59 163
5114 -0.14661189613540609 1.9463384437481825 7.5700282233144955 162 154 148 2.1733307975576581 133 362 134 312 58 192 57 190 59 195 46 157 51 157
5115 4.0131551024435366 0.60571669962512564 10.207733074483324 0 0 0 0.48587661985577757 140 210 141 210 148 208 133 373 134 372
5118 -0.059225680760225059 1.9939210834120518 7.5892593153882455 182 186 202 2.0169842171047363 55 418 60 417 133 476 58 207 134 473 57 204 59 207
5119 5.3636025519091159 1.8155591278177448 8.4420722882920565 203 199 196 1.4850211557478123 141 799 148 776 58 212 140 779 57 209 59 212
5120 2.4171472242056127 -1.3783347095717404 7.5594470253654764 72 75 84 1.0472195895969698 55 374 60 373 58 213 57 210 59 213
5121 -0.43259475580004825 0.96143903780673023 5.9158738768434702 147 125 111 0.26915668337813808 55 407 60 406 125 414 131 407 58 216 57 212
5124 5.5626309100674067 -0.26182634716017639 7.6072878390056013 183 182 178 1.2436516400053947 141 173 58 234 140 175 148 174 57 228
5125 9.7249220138786967 0.79993524426845086 10.736042862894919 117 112 109 0.34307086960483585 128 274 58 246 127 274 130 274 59 240
5127 0.44844626466838683 2.3066648511279499 7.9209011727200878 180 161 154 0.90175395208729636 55 208 58 262 60 208 57 263 59 318
5128 1.4841381961945779 -1.0965141851188764 8.2312558678090166 55 54 60 0.14646625756838799 55 343 60 343 58 264 57 261 59 316
5129 -0.51728249469887955 2.3820952775610498 5.96982529967622 165 160 157 0.51087683732790234 47 242 48 242 49 242 55 410 60 409 58 270 57 319 59 309
5131 -0.046412895919970887 1.6336655731029239 5.6884637373394504 220 205 199 1.0818335083726849 55 303 60 302 58 277 57 311 59 265 46 180 51 180
5132 5.3105660965130577 1.3223255351976406 9.2902947132644549 144 139 138 1.820113010724369 125 493 131 477 140 594 141 598 148 595 58 281 57 307 59 270
5133 5.2344878265392376 0.78440905248018233 7.5386198924697254 204 200 201 0.42128331450198059 127 399 128 397 130 397 148 703 58 290 140 705 141 660 57 254 59 279
5137 5.979469610409117 -0.13350519103435177 7.3319061153197378 157 155 152 0.66613914555595433 127 368 128 366 130 366 58 310 57 278 59 302
5138 -0.3963492287310848 1.8767494403752143 7.0174145655845965 164 146 124 0.53715085910373583 55 215 60 215 58 316 57 265
5141 5.0453124313562778 1.0100347804588734 9.1227938709021004 229 226 229 2.0107854690773928 133 651 134 647 58 336 57 339 59 327
5143 -0.47653440511119971 -0.17186323345133825 5.6546567793981364 176 152 130 0.61405232988652458 55 307 60 306 133 367 134 366 58 347 57 350 59 339
5144 -0.48007144679259245 -0.22977092944177738 5.6639189553700655 223 198 178 0.13839797416157298 55 401 60 400 58 349 57 353 59 341
5145 -0.5233101578998377 -0.0064773099472233558 5.7598573188545874 139 119 107 1.5137653337812058 55 405 60 404 58 351 57 355 59 344
5147 0.17443042223823763 2.440863115642776 8.0899853854423398 176 176 177 0.11970467676454932 55 341 60 341 58 356 57 360 59 351
5149 0.83517167696642902 -0.95444051102672778 10.050215560104126 131 127 126 0.58585503231087099 55 345 58 364 60 345 57 367 59 358 46 270 51 270
5152 -0.16271778366533829 2.2812956032617988 7.9987561721600553 199 190 187 0.25834119864776439 55 503 60 504 58 380 57 409 59 420
5154 1.3010283812777264 -1.2804970927335997 7.9172028574644973 70 70 78 0.30253006631295232 55 398 60 397 58 384 57 406 59 424
5156 -0.44038245246612384 1.3454407301209759 6.0271780644127446 74 52 39 0.12400999701615224 140 919 141 916 58 389 148 917 57 399 59 385
5157 -0.44534563547529632 -0.18375915881179086 5.7404225217103564 208 186 173 0.51603373016659837 55 484 60 484 58 393 57 396 148 352 140 355 141 344 59 387
5159 0.26413433107824347 2.1308364672943174 5.4972193232168847 227 211 196 0.35585260412840153 55 471 60 471 58 402 57 387 59 395
5160 5.1884384388912883 1.9036296757530906 8.2605445079882571 112 107 103 1.2108931368317168 148 164 58 406 140 165 141 164 57 383 59 399
5161 2.2434146054789754 -0.43144564194673074 8.5332171660312959 112 111 115 0.16890348667518698 55 473 60 473 58 408 57 390 59 393
5162 6.2444810532112269 3.8461679233020565 7.0001742236549855 68 62 57 1.6563711588651784 55 182 131 292 60 182 125 297 58 237 141 386 140 389 148 387 57 231 59 231
5170 -0.47279789348767493 3.5781002737858931 6.718791193535453 187 169 149 1.0946782241410813 55 214 60 214 46 140 51 140
5172 5.4274526645073378 0.19991116322503166 6.8786486030670941 196 198 187 2.8045577691390173 140 407 148 406 58 223 57 219 141 404
5176 -0.3557100701901641 -0.430294883736968 5.6763684750496486 234 215 201 0.21571887934977602 55 7 58 18 60 7 57 18 59 18
5177 -0.26281658112881762 0.21938385273871766 6.2909485312099243 172 150 136 1.1260685382419726 55 5 58 19 60 5 57 19 59 19 46 10 51 10
5180 2.4479533680444985 0.16646933989643581 8.447715374219273 102 102 103 1.3998599744601994 55 33 58 48 60 33 57 55 59 54 46 20 51 20
5183 2.7993922685507791 0.65788034386830962 9.1349235018095936 203 198 195 1.701935404573041 55 83 58 91 60 83 57 90 59 91 46 42 51 42
5184 3.9897437785055709 1.8802061970583355 5.3526332762691595 0 3 9 1.0319241846660903 58 100 140 112 57 98 141 112 148 111 59 76
5189 5.1342233899246006 1.265587490591243 6.8319626286273625 165 159 159 1.9325260292386393 58 173 133 311 134 306 57 145 59 190
5191 2.6193423492627397 0.17924442986480316 8.5125432040058406 70 69 67 0.35903519718856758 58 165 57 181 59 179 46 89 51 89
5192 2.4920304238746271 0.046840486891847465 8.5199016984119584 174 173 181 1.1756368781972726 55 226 58 175 60 226 57 182 59 180 46 117 51 117
5193 5.438765596601006 0.31349774506762401 6.8975207614207976 152 152 144 1.1839834720058631 58 169 141 403 140 406 148 405 134 297 133 302 57 189 59 185
5194 5.5005009764432602 0.82815642362276876 7.4948775342232388 233 228 225 0.21538136160848434 58 240 127 347 57 234 128 345 130 345 59 234
5198 0.96288818042581792 0.003818854805496116 8.8707092955128939 124 124 126 0.36860150046293205 55 212 58 321 60 212 57 270 59 323
5199 5.2750012971184512 0.36887730353179976 6.7766952809877097 197 197 189 0.77767518959708104 58 311 134 675 148 404 57 279 133 684 140 405 141 402 59 303
5203 5.4317955455968914 1.3728346214582405 6.8860847292439065 246 243 247 1.0744713717398133 127 272 57 291 128 272 130 272 59 290
5206 5.5153922289344397 1.3629626621964255 6.8151787284514116 0 0 0 0.18016585894250151 127 504 141 825 148 798 128 500 130 500 140 802
5209 7.2067955169298639 0.16946211945476819 8.8720538732432406 104 100 101 0.19997727051707576 127 373 57 336 128 371 130 372
5211 3.1998325517419688 -1.0301910255167024 8.3265956783304329 53 52 58 0.48774171821894913 58 340 60 454 57 343 55 453 59 267
5216 5.5421538236151546 1.5600051844898501 6.6224509719534401 201 201 193 1.6567817934435749 58 418 134 621 57 375 133 625 59 410
5218 -0.63834150442453697 2.7141483611041011 6.2209405537116647 224 211 204 1.8139439981342111 55 414 60 413 57 405
5221 6.6057239784096708 1.1297334369110954 8.4348597408448622 120 115 112 0.06835419596404671 148 26 57 44 141 26 58 43 140 26 59 43
5229 4.8836184285512081 2.360271177704333 5.7789115419708068 2 0 1 0.18686832216864771 57 101 58 102 127 160 128 159 59 102 130 125
5231 -0.17233154005545676 0.071791015818566256 6.3280115261279288 156 140 127 1.7601636228028468 57 192 58 181 130 425 59 144 127 426 128 424
5236 5.4099631943738737 1.174593790642019 7.3714973182852521 199 200 194 0.92736452753322807 57 235 58 241 141 699 148 700 59 235 140 702
5239 3.8955846785886195 -1.041015831720939 8.8497156774028873 75 74 80 0.94315217795390038 55 372 60 371 59 268
5905 -7.6735277931216013 2.7599589844284909 9.6878871503744417 39 35 32 0.86798787167733094 2 41 6 41 13 41 18 44 22 44 24 56 25 55 26 55 27 82 28 85
5248 -0.34002309530252378 1.596760190060488 6.2132427468936218 188 166 152 1.0815087413192552 57 402 127 428 128 426 130 427 59 382
5253 2.3160808654121379 -0.64385947066823745 8.1044432238644664 204 203 201 1.0426480789349148 57 27 58 21 59 27 46 6 51 6
5254 4.9670616007588739 0.076499143980938156 6.7795837853531831 203 199 196 3.7659413445452876 57 284 133 304 134 299 59 226
5913 -5.8555224173233862 2.5995620286777705 7.9572903745901282 160 157 152 1.5013006896568848 2 138 6 140 13 139 18 277 22 276 24 351 25 378 26 330 27 300 18 278 28 302
5256 5.3836390393531728 1.6147441563910117 6.8949560424603629 202 199 190 3.1838581659769218 57 293 58 299 141 687 59 288 140 690 148 688
5262 5.4892404478173313 0.12728347032835974 6.0241574701865019 170 164 164 2.1437471710586293 148 4 143 4 140 4 141 4 145 4 149 7 147 7 146 7
5264 5.2980936990069472 1.9926485310477928 5.3777242815892787 96 100 112 1.5162329031589445 148 31 143 21 140 31 141 31 145 21 149 16 147 16 146 16
5267 6.1501071089306025 4.0785577877288812 6.9388794758524348 129 125 122 0.2654188753309159 140 54 141 52 148 60 143 36 145 44 149 44 147 38 146 38
5268 8.031035474349693 0.68243806929122719 8.5735680863419841 197 198 193 0.83100165824400773 140 184 148 183 143 45 141 182 145 46
5272 9.0159731727224059 1.4374641280713685 9.0169381448770771 1 0 0 0.56965644870892373 140 277 141 277 148 275 143 69 145 68
5273 10.528487209807915 3.7913865197455117 10.602758593136919 189 186 181 0.96497722593266178 140 285 141 285 148 283 143 70 145 69
5275 5.5007042970076654 0.96506457097410459 5.3126472782320437 212 206 206 0.24659822216511937 140 226 141 246 148 224 143 80 145 87 149 40 147 40 146 40
5277 4.061627379755846 1.870902722885637 5.1655579645428968 57 58 62 1.3323113363205301 133 135 134 190 143 88 145 88
5278 5.4104551132807313 2.4929239082490766 5.8469751475812446 0 1 0 0.63776148959318324 140 272 141 272 148 270 143 90 145 90
5279 4.4309087603678847 5.4922396742344439 5.9368950580104416 212 207 204 0.50627237870516051 140 170 141 169 148 169 143 95 145 95 149 115 147 113 146 113
5280 5.6442491330957285 6.5292030534731067 4.131836915920597 91 81 86 1.4895049161183294 134 98 143 98 145 99 133 95
5283 5.5628204821522296 1.5845975679897055 5.8814254444029164 212 203 198 0.18981263251742045 140 225 141 224 148 223 143 108 145 188
5941 -9.3679079421572968 4.2648297206033394 6.3835190537711917 78 78 74 1.2541228524673562 2 46 6 46 13 46 14 58 15 58 18 73 19 58 22 72 24 43 25 54 26 53 27 90 28 92
5284 5.714389873276132 0.21072413768250844 6.1858859375824835 166 165 163 0.49566490443241734 148 257 143 112 140 258 141 258 145 193
5285 5.5150636787805469 0.78660002241422122 6.1307973641646605 182 162 157 0.81849825489037076 148 200 143 115 140 201 141 199 145 107
5945 0.97037058850796121 3.288848401239826 1.0083900081846182 0 0 0 1.2679339466041082 2 245 24 657 25 656 26 662
5288 9.1586948347847539 1.1566721941666989 9.3738833251839271 76 70 70 0.36155461477799122 140 393 141 390 143 133 148 391 145 125
5289 8.9272297929670188 0.91524356657611294 9.2803341591550765 176 170 170 1.0912168582554593 140 394 141 391 148 392 143 134 145 126
5292 5.4636129509488072 7.2711777273210885 3.1207811236731442 160 155 149 0.13455547493583245 143 168 145 161 149 166 147 165 146 166
5293 4.4036014834147181 1.9378597788843297 4.0492323674717259 94 95 100 1.3884429447683737 140 134 141 133 148 134 143 172 145 165
5296 5.8139159429225984 0.098587967931773268 5.5030786347778893 247 248 250 1.0076529072989799 148 131 143 183 140 131 141 130 145 176
5307 5.5829135741000053 0.38776613842108776 5.7236991513771915 212 211 206 1.2279904140980082 148 249 143 232 140 251 141 250 145 225
5901 -3.7646293533890174 2.4737327379971812 2.8173598756221407 168 164 161 1.6093690726683796 14 262 24 255 26 255 25 254 15 262 19 262
5308 5.5371184705506789 0.96122634214957947 6.1975645357289633 200 191 184 2.5703974030515697 133 209 143 237 134 212 145 238
5309 5.5281375457442934 1.1012342956578061 6.2245765843972594 159 154 149 1.1039309889670712 148 423 143 238 140 425 141 423 145 329
5313 9.8934019226627576 2.2217568220548829 9.1928733203146624 196 197 192 0.94296255453710331 140 546 141 550 143 253 148 547 145 201
5314 9.0161439561528844 1.2730005962877833 8.7802082185193644 2 1 0 0.85639339817860127 140 413 141 410 148 412 143 255 145 223
5316 4.2835535348521976 2.2259085436580794 4.0410946612599181 79 87 100 0.50161788111647831 140 244 141 242 148 242 143 282 145 206 149 209 147 208 146 209
5317 4.2393845769852314 2.6452841219695453 4.7452394478454796 83 83 83 0.40861822567418793 140 666 141 664 148 664 143 286 145 313
5318 4.2290389275504019 2.9115976781327393 4.9726914968468989 60 59 62 0.91119658924080416 140 426 141 424 148 424 143 291 145 318 149 308 147 307 146 308
5320 4.6487352847968797 3.2485757550588157 5.638035962886601 89 77 97 1.962011542800304 140 229 141 227 143 299 148 227 145 327
5322 5.6483459347205223 1.1041755537251303 6.3659789762315917 167 162 156 0.14710122970234993 140 424 141 422 148 422 143 303 145 331
5323 5.5497695887792569 1.0542465325228345 6.4157583764703441 195 192 185 0.50147977530369947 140 538 141 542 148 539 143 309 145 337
5326 4.6417991149400555 2.5806754278826594 3.7037313134141221 86 88 92 0.53383354190066989 140 487 141 488 148 487 143 386 145 290
5331 4.6145640940606079 1.7249118207759859 5.0542070253612286 9 14 18 1.0193970080594146 133 550 134 531 143 420 145 411 149 736 147 733 146 735
5333 5.5209664848541555 5.3543923817087009 3.4258838769587596 163 146 165 0.12489089078845379 140 498 141 499 148 498 143 447 145 497
5334 4.2581708895031909 2.2688086495577768 3.9178272003164931 66 74 87 0.5822366961523231 140 761 141 637 148 758 143 454 145 504 149 447 147 446 146 448
5338 5.3518396369600572 1.7965137479704856 5.6536550650245445 36 32 24 0.22593791251117179 140 530 141 533 148 531 143 480 145 433
5339 1.9316768909203101 6.853092973028085 4.0846288542288987 194 186 184 1.0006504854000253 140 572 141 576 148 573 143 482 145 435 149 467 147 466 146 468
5340 5.6280707137916117 2.0012479767985178 6.4048192276322968 123 122 118 1.2661715547412724 140 543 141 547 148 544 143 484 145 437 149 758 147 755 146 758
5341 4.7676485944209981 3.7239863427360986 6.9699412709707733 167 168 159 1.232899779342695 140 577 141 581 148 578 143 493 145 446
5342 2.0826131608400784 5.1904296381796629 5.9995083721001912 204 198 198 0.81294219461118966 140 729 141 726 148 727 143 496 145 449
5344 0.48777237900971177 0.9554131080213546 5.628828140829067 193 178 174 0.14695743558262214 140 606 141 611 148 607 143 510 145 463
5345 -0.013178458293174702 2.0712791066138854 5.6940779661682459 188 189 201 0.043054598279496349 140 620 141 753 148 619 143 512 145 465
5346 4.7421985419368724 4.6118221493680087 4.920597796892678 82 77 80 1.123843975803442 133 100 143 524 134 103 145 547
5348 4.9676440088558884 5.5781745429074387 5.4156886039331189 192 183 182 0.77252219532387945 140 549 141 553 148 550 143 527 145 550
5350 4.4300721457987438 4.1041591189850131 4.1939751525273969 47 40 51 1.2962742499153195 140 661 141 658 143 626 148 659 145 617
5351 4.3108424651632573 3.0993962339339292 4.4321445483371971 92 92 92 0.63327729454605297 140 525 141 527 148 525 143 630 145 621
5353 4.4673550213742992 2.9980175462758654 7.0269935583047598 141 140 138 1.1515523664934493 143 585 141 822 140 831 148 827 55 428 60 427 145 649 149 782 147 781 146 783
5355 4.3158465703975644 3.4396220140170257 4.1859287302754602 0 0 2 0.60673026534901864 140 12 141 12 148 12 149 41 147 41 146 41
5356 5.6830583182499694 7.0751254175614351 3.4903627343614767 152 150 140 0.054201011991275208 134 92 143 63 133 90 145 63
5364 7.2602028546433113 2.1185175124306594 8.7659505125262527 155 151 148 2.2143812903336384 140 375 141 372 148 373 143 333 145 360
5366 5.0499368122371688 7.2132666367296725 4.8612344492629616 221 213 211 0.62718495972598798 140 1 141 1 143 1 148 1 145 1
5376 -0.28785890226253946 1.7021176076432729 5.7931191062134015 199 178 157 0.018880296583186653 143 353 148 633 145 381 140 642 141 767
5387 5.5181266929737971 0.48131123852412228 5.8324125746613094 202 198 195 1.6743303708446275 143 538 148 351 145 432 149 256 140 354 141 350 147 252 146 253
5820 4.1813100021010241 2.777965435618051 4.4361108442178994 137 133 124 1.3915015966219781 13 169 18 235 22 235 2 163 6 176 14 237 15 237 19 237 26 251 25 249 24 250
5389 1.199676981911437 -1.6896887216929541 7.4302921397357142 173 181 192 0.62655460962754217 60 32 46 21 55 32 51 21
5391 8.3403472701344299 3.299290278001147 28.711233385798334 0 0 0 1.3250383617317465 48 40 49 40 127 112 130 111 47 40 128 111
5760 -5.5148324367015418 1.649148025716207 7.7473707642408209 134 131 122 1.2154247482695948 14 25 15 25 19 25 18 16 22 16 26 22 24 22 25 23 27 26 28 27
5393 1.3012600493782061 -1.2088600594065135 8.4594676182819413 137 139 151 0.22304516651064479 55 30 60 30 46 40 51 40
5397 0.84787228648995139 -1.1522903547624281 8.9349222044812411 163 159 153 1.6294923082352704 57 141 58 123 59 142 46 58 51 58
5398 -2.5148351261666488 -0.51150634257116789 5.4295037066207721 116 114 115 2.1343016523165832 48 200 46 65 47 200 49 200 51 65
5400 1.0076268007859805 -1.0611637938605276 8.7325368332228575 150 147 140 1.1194287567135506 60 206 46 81 55 206 51 81
5402 -1.1938188831233498 -0.67525714766846723 10.552754092934155 98 82 69 0.13238510934745146 47 96 48 96 49 96 46 101 51 101
5772 0.38262846480540863 -0.34565838940999261 7.2667904659157685 223 202 181 1.1156414436286524 14 33 15 33 19 33 18 106 22 120 22 190 24 544 26 548 25 546
5405 1.0808424351441144 -1.6223184081156112 7.3844571638548073 48 51 58 1.1972620609193816 55 203 60 203 46 116 51 116
5408 1.2450673649606321 -1.8943045499461058 7.6521897610201259 111 116 124 1.7616203458306796 60 298 46 134 55 299 51 134
5410 1.0549640108721925 -1.3630724670986349 9.7449415743876635 80 81 82 1.6903872453467756 57 220 58 226 46 141 59 223 51 141
5415 2.2258035935068734 -0.51235142598986483 8.3312442614741595 118 122 125 1.5807263306478436 60 516 46 184 55 516 51 184
5416 1.4801999153727932 -1.0157867566720507 7.9131946612426276 106 101 107 0.32092222227845002 55 300 60 299 46 185 51 185
5417 0.87219281558523942 -1.0721063045771888 10.03557610513999 97 96 100 1.9113368130964017 55 331 57 366 58 363 59 357 60 330 51 188 46 188
5792 -0.3802083370332795 1.4295269405703193 6.3769754632540838 200 174 149 1.1623031060701763 2 203 6 206 13 203 18 338 22 321 26 156 24 155 25 154 27 238 28 240
5425 1.0359151464145724 -1.2821403635530773 9.7588667938267957 57 57 55 2.1409755840007811 57 60 59 59 46 33 51 33 58 59
5426 1.5758499131407449 -0.92322857842073225 7.8001675406409312 105 104 107 2.3324393609965268 55 47 60 47 46 43 51 43
5432 1.0926835227583063 -1.0355236252591991 10.089784476981617 170 165 159 0.69245753341683836 46 60 57 74 58 72 59 74 51 60
5800 -4.9137357933074846 2.1385167231545963 9.1019333260250903 171 167 164 0.72825801048110017 2 73 6 68 13 93 18 150 22 152 26 150 24 149 25 148 27 252 28 254
5433 1.4436172644291023 0.24713006725447914 9.7103891822161739 152 153 148 0.38851637485414175 46 70 57 94 58 96 59 97 51 70
5436 -0.39422786436425727 1.0995774070903801 5.9866573486650463 167 144 121 0.44763832706572931 46 111 133 269 134 269 51 111
5442 2.504016471890838 0.19949704920073649 8.4309240274899651 137 139 148 1.5540413071645147 46 153 55 227 60 227 51 153
5446 0.23892899965511902 0.779643682039587 5.5168304765197762 215 206 189 1.3325384269223011 46 278 130 455 51 278 127 455 128 455
5449 6.6402166398659981 0.053393987879230782 7.4828367144733896 118 112 116 1.6350404924390431 143 17 145 18 149 13 147 13 146 13
5450 5.2113038791630597 3.3020985183639282 6.5806342331876637 148 143 140 0.81336854453730945 143 15 145 16 149 15 147 15 146 15
5452 4.4953484154682579 3.3727244203201998 7.3222446736110118 124 124 129 0.38354562587896124 143 30 145 31 149 29 147 29 146 29
5453 4.4841257211914485 2.5212895377588023 3.7490555634969245 0 10 26 1.6917739076139611 143 167 145 159 149 52 147 53 146 53
5455 5.9822736275412511 0.1407962235427474 4.9997052479037176 201 201 203 0.65842690291869155 143 54 145 54 149 56 147 57 146 57
5463 5.5226755837481623 0.6574476336031897 6.2105079945867327 190 167 161 0.1717013899600506 140 223 141 222 148 221 149 118 147 117 146 118
5673 -1.234197705430919 0.94535507538061636 5.0742485519040024 145 117 96 1.563484171737199 40 23 42 25 50 79 38 25 45 76
5464 6.5321076231495603 -0.19238221435182759 4.6195861018225308 209 210 212 0.44390084585132811 143 61 145 61 149 119 147 118 146 119
5472 5.9618881029187865 0.29193300328282412 4.2685870785534368 193 192 197 0.6054086565099922 145 152 149 164 143 160 147 163 146 164
5776 0.57628326936843011 0.3359068903011263 6.0490900907276295 207 182 158 1.2515157922106239 2 135 6 137 13 136 18 153 22 153 26 372 26 569 24 365 24 563 25 371 25 566 27 455 27 555 28 457 28 559
5473 4.3851764995241425 1.8097784468086846 4.4956869119596732 96 96 108 0.082320256324252203 140 333 141 398 148 331 149 211 147 210 146 211
5479 5.7281032780624317 0.91555657761855691 8.6164643389226701 204 200 199 0.152401150427249 143 275 145 272 149 232 147 231 146 232
5480 0.77617469503237879 2.4126582380562369 5.8036309671602373 180 163 141 0.20954698393134413 143 277 149 238 145 274 147 355 146 326
5784 -2.1557958156782608 8.2358124127667018 2.805801500499745 176 171 168 2.0296048765935035 14 118 18 242 15 118 19 118 22 242
5481 5.5208279983748554 0.81675551700463311 7.8815748813779587 203 195 192 0.90924615178588397 140 289 141 289 148 287 149 239 147 237 146 357
5482 5.7723898187991516 1.1767352010552514 8.7005285291223391 182 179 170 0.24998736167228741 143 283 145 279 149 242 147 240 146 241
5484 5.8146104699516945 1.3616038969018331 9.1843299562073941 129 129 129 0.97641209378986416 141 596 143 414 145 414 149 248 140 592 148 593 147 246 146 247
5788 4.0567995140682509 2.3240410141387571 4.0846158270493618 122 98 120 0.74734370445715892 14 162 15 162 19 162 18 250 2 174 6 181 13 174 22 247
5485 5.426869596299861 1.9695589096098072 6.5020402039235368 167 162 159 0.30291957564398753 140 404 141 401 143 313 145 341 148 403 149 275 147 272 146 273
5856 3.5350545704975396 4.5294509592297247 6.5014339565138384 186 181 177 1.1111073104986604 14 210 15 210 19 210 26 443 24 443 25 443 27 514 28 518
5489 6.2755094683967929 -0.38492984026956251 5.6519833313130583 254 240 247 0.19887954722169759 143 470 145 421 149 287 147 303 146 304
5490 5.4866539916699386 1.564526406803568 7.0005691212073042 158 160 155 1.0913408820161805 143 323 145 351 149 288 147 284 146 285
5860 3.9854126973163742 2.055142081176808 3.7536523497776959 208 203 205 1.4389526928998055 14 102 15 102 19 102 26 481 2 178 6 184 13 179 24 480 25 480
5493 4.5092829370372147 1.9259019481042221 4.170896203050563 99 100 105 0.93517601812554063 143 284 145 280 149 321 147 302 146 321
5495 5.5770931551314966 1.8774691247252657 3.3998808147073767 248 248 248 0.88851058037046049 143 422 149 350 145 482 147 347 146 350
5864 0.83011676452190886 3.2348475001493613 0.66983395624249087 181 183 182 1.9233946612965755 2 207 26 654 6 210 13 207 24 612 25 611
5497 3.5770799407240514 4.7832744882967591 6.053761044377227 138 136 141 1.6247175880139111 143 650 145 637 149 363 147 361 146 363
5498 5.5246396780660652 5.3444500176842169 3.168461660001034 181 164 138 0.56121295631207513 143 378 149 370 145 282 147 369 146 370
5868 -3.1990824932647781 0.93798185933910849 8.2607001886156155 86 87 89 1.617185611082796 2 221 6 219 13 221 26 672 24 655 26 673 25 659 25 673 27 377 28 379
5501 4.591528405964743 2.9762453739273131 2.7586859573006071 139 139 141 0.85645661657707228 143 424 145 480 149 428 147 427 146 428
5506 5.2169723404833066 2.5330804832478941 5.8420058213206945 39 51 53 0.24889435053388689 143 530 145 553 149 474 147 472 146 475
5507 5.9066850063107887 3.5604460148267236 7.2350784660601954 132 127 124 0.5775852509703262 143 320 145 348 149 489 147 487 146 490
5509 5.4700450739472402 8.2326360326185188 2.5896996393237464 143 140 131 0.7502079778858618 143 567 145 531 149 495 147 496 146 596
5510 4.7594284944176195 4.3827825465133259 4.1688367006107532 77 79 76 1.2025891806253992 143 623 149 514 145 614 147 514 146 513
5512 5.8773982886974014 6.2226558244058925 2.3886498691629323 168 162 162 1.685755567595399 145 527 149 530 143 562 147 526 146 530
5515 5.822506259958061 6.3906792369899152 2.2287248867260985 172 167 164 1.5213674279889793 145 484 149 587 143 433 147 586 146 587
5661 3.3791794029418427 -0.52931080901604111 13.122462689873702 0 0 0 0.32256843517627659 45 374 50 375 125 312 131 309
5516 4.9235387592214348 2.8698672514299171 8.2002016694102036 204 198 193 0.72796070894476383 140 837 148 834 149 600 141 830 147 597 146 600
5517 5.4802353274341113 0.85950297784437468 7.7715507123711935 199 198 194 0.18240042206699161 140 707 141 704 148 705 149 603 147 625 146 603
5518 4.6867765439513418 2.5845867216716956 8.481470813828734 202 194 192 0.81361843313341409 140 843 148 840 149 608 141 836 147 604 146 608
5729 -1.8268161201141253 0.69500959884289104 10.827070257349984 142 137 138 2.1133364224589637 47 206 48 206 49 206 39 212 37 210
5520 5.6124537278217108 1.5475483165022532 9.1904947047849372 154 150 141 0.062340787455722496 140 841 141 834 148 838 149 630 147 626 146 631
5523 5.6511077594997667 1.6698570466176064 3.7347885623634554 248 248 250 1.5031255052250192 145 577 149 650 143 655 147 646 146 650
5526 4.3045804051677132 3.5807567531035858 4.4678960085471342 110 112 109 0.52082149670307654 143 471 145 422 149 762 147 759 146 728
5844 2.2546096540485081 4.7002832637207526 5.3422051929830827 205 199 195 0.69319754272094158 2 211 6 179 13 172 14 159 15 159 19 159 26 182 24 183 25 180 27 207 28 207
5541 4.595276927614627 0.84630617070740943 5.5960096705101225 1 0 0 2.5216415118822559 145 91 149 60 147 61 143 91 146 61
5689 -0.11254539563891496 0.73459085090554965 7.3700040124137711 204 201 194 1.2239993420753288 38 5 42 5 37 20 39 11
5544 8.4514906703836061 2.3393052776155194 10.060860293516166 111 103 100 0.94450051924670042 145 267 149 106 147 105 143 270 146 105
5848 -1.4053686875682765 6.4802271724882869 2.267966239204493 204 198 198 1.8198601448346785 2 170 6 178 13 171 18 314 22 355 26 315 24 315 25 314 27 674 28 678
5545 0.64557082971438451 2.3366223681501159 5.8674662328345297 227 207 183 1.1681090935907312 145 372 149 129 147 128 143 345 146 129
5852 -4.4604120691330555 2.4017215311746765 8.6804790961743432 182 184 183 1.3276405571313163 6 76 13 67 26 350 2 76 24 334 25 346 27 247 28 249
5549 6.1254098725566646 -0.25152789941509657 6.3987626474811776 253 247 251 0.080952462175367029 143 113 149 221 147 220 145 194 146 221
5558 5.5571335650752198 -0.84723524276943085 6.5499835611116959 217 211 213 0.45083428467112946 145 252 149 384 147 384 143 248 146 385
5645 3.6912031185770551 4.709242474275432 5.9483836684898002 69 62 63 0.65431291229608923 124 108 125 100 126 108 131 100 40 70 42 70 38 71 37 37 45 51 50 54 39 38
5564 3.8872797982258711 1.0213258452543919 3.188345201584617 56 59 68 0.12793049420644095 145 654 149 592 147 491 143 660 146 592
5565 5.4582824677002773 0.58028823201101942 5.2089650871590782 179 176 167 1.2370983995888802 145 96 149 526 147 528 143 83 146 524
5570 5.716442922321372 -0.22636982314262671 5.7888001230033836 248 248 250 2.3243499925273801 149 114 147 114 146 114 143 226 140 247 145 224 148 245 141 245
5573 4.7139262004390838 2.8106015709509702 4.2307915366035305 8 21 30 3.0690254954635416 140 822 141 779 148 807 149 812 147 814 146 810
5574 5.8643994813353437 1.7976881274027461 8.9922117397558168 168 164 163 1.660002107442059 141 595 60 274 55 275 140 591 148 592 55 438 60 438
5579 4.4366371818867121 1.8138490843688022 6.4705104661422839 0 0 0 1.8272439534997265 140 173 141 172 143 59 145 59 148 173
5585 5.8035530395518338 -0.75467125728156836 6.878410654404874 155 150 147 2.0250789966624869 143 128 147 299 149 302 146 300 145 120
5590 5.3554261966602486 5.8222920057651928 2.2059255145300676 209 207 200 1.0618544297581125 143 657 147 582 149 583 146 583 145 576
