# 3D point list with one line of data per point:
#   POINT3D_ID, X, Y, Z, R, G, B, ERROR, TRACK[] as (IMAGE_ID, POINT2D_IDX)
# Number of points: 414, mean track length: 3.465558194774347
2 0.86340931495327355 8.233271013892157 17.671754356411846 142 137 143 0.82487670258014811 15 11 42 6
3 -12.882875083402215 -8.3820031060113216 37.300005424667297 176 174 179 0.69415911945346676 19 6 16 3
4 -4.7944081602391124 8.1711524930612356 12.770541200446038 151 151 151 0.34636223137206146 54 2 20 2
5 7.4788035014684846 6.7074617182275897 18.422312345427141 151 153 165 0.68353694349076366 15 14 54 7
397 6.8836462195482024 1.4136576888377037 18.074600299143526 162 174 190 1.5928468743628816 20 47 60 84 30 51
6 10.031432481823728 3.5587193417863716 18.519658993949687 151 166 187 0.9824271490850911 19 14 15 18
7 -6.1418654461218178 4.4827493432463577 17.181910333427076 156 156 154 1.6399663257400587 15 27 42 14 54 5 50 4 11 10 34 11 18 9
8 -0.42620673279557508 7.9275988471280572 12.577344023740347 238 211 217 1.3349237115997268 19 19 15 38 42 41 11 12 50 7 34 9 18 10 20 12 60 23 21 26 30 24 24 13
9 9.9594561955025789 -9.3903137880239491 34.862515601902537 77 87 97 0.9617572489722056 19 21 15 16 16 34
401 9.1745063497700308 0.65974398081617502 32.130677191444249 230 217 207 1.6494179185872049 19 161 60 127 16 513
10 -5.6916517575500274 -7.1812406470108829 33.347131061108044 206 188 174 1.2984215887505135 19 23 15 45
11 -2.2419414777098106 7.253027119884023 13.183666499506447 249 187 151 0.94583589624939568 19 25 15 55 11 29 54 12 50 15 34 23 18 14 20 18 60 24 21 19 30 32
395 -1.067211549195642 6.6589335331117168 18.260099296445429 123 115 125 2.3160667450455286 20 32 60 59
12 -13.388135926195904 -9.5738102372742429 43.233945850562137 141 141 151 0.36850127004606276 19 26 15 43
13 -3.974930763304477 -4.0985742115188133 31.857314380082382 196 186 174 1.0232299224147241 19 27 15 49 16 18
14 8.174019622776532 6.2455375270010318 16.525334279335667 127 127 139 1.5069805948568389 19 32 42 22
15 -3.174771663319309 7.6504313277063636 10.442042261030174 153 151 154 1.7729561573055423 15 35 11 47 34 54
16 1.0003812516497033 8.4342786316102707 12.263883329742878 236 206 220 0.98134334127671752 19 36 15 39 42 28 11 15 60 22 21 27 30 33 24 14
17 -15.417705710701201 -8.32642997550046 34.493393850695057 224 224 224 0.45109491536989399 19 41 15 42 16 36
409 8.4898567316437479 9.4884200359939808 12.921983900387762 195 195 196 0.26757851999672816 19 525 60 235 21 140
18 2.9466871230425151 -6.672917161165552 34.562441011661143 197 203 203 1.6645800843674894 19 43 15 24
19 0.73935746725593343 -5.1693616726703375 31.474454474244148 112 88 88 2.0589367911457672 19 45 15 44 16 44
403 7.8030584210613432 5.0418759993388873 17.243413888346275 79 87 105 0.32852003918162198 20 155 16 394
20 -1.8451993416535581 -4.944660223628202 30.3803173708 128 104 100 1.0675310302993113 19 46 15 32
21 -2.8914239699320983 8.0466631780613032 12.025021748472174 221 239 253 1.0991308971783675 19 56 15 72 42 54 11 35 54 13 50 14 34 39 18 18 20 28 60 38 21 21 30 34
413 1.7450599448716344 8.4923123839521448 12.935528907639599 151 126 132 2.01635568820114 60 287 21 267 30 171
22 8.8943085800508239 -11.299408328019938 32.914463111792088 223 224 229 0.82799692356600263 19 60 16 62
23 -0.31240888145805745 8.5538430542835187 11.782632766107355 253 191 216 0.82349763532430864 19 62 15 88 42 94 11 37 34 42 18 30 20 35 60 58 30 59
487 8.1593006333081828 18.265622348554327 16.215269870720057 220 233 249 2.1747405035211029 60 350 30 162 24 117
24 -4.440096119396582 -0.83892673563510856 33.861093359072321 220 212 193 0.54358023740437822 19 69 15 106 42 83 11 69 50 41 34 46
25 -1.6891471412368846 -4.1232938875283409 33.518891831048322 204 189 173 2.4791808011712875 19 72 15 50 16 121
481 7.2447973113367006 5.0665354057395477 16.350410302173774 71 87 101 0.45987221855945215 60 159 30 117
26 12.671539030100561 -9.2437719683790522 37.183866332873905 139 142 149 2.067276600604774 19 80 15 46 16 166
27 1.9233332605536468 -3.1265273947433618 34.314275151033947 182 157 152 0.89332134083331594 19 84 15 135 42 104 11 68 54 35 50 45 34 62
411 -0.67894671326329226 8.5314120676284695 11.69189478879291 251 240 244 0.37862195603678545 19 382 60 248 30 152 21 145 24 106
28 8.1620159937505115 4.6667947843888831 18.267914890921769 146 156 181 1.0229509723698949 19 96 15 82 42 51 11 60 60 88 16 230 21 61
29 -2.3794043137142831 7.8960151972816082 12.242637674180912 251 185 171 1.6180140938902892 19 101 42 118 11 48 15 192 54 47 50 30 34 71 18 46 20 37
485 8.3809785483891428 16.224325236197419 17.582811490113997 208 209 214 1.1055209924327827 21 202 60 368 30 158
30 -1.3679529020671461 8.2200560351707299 12.038535084188739 252 185 169 0.61000265629045225 19 103 15 85 42 120 11 38 54 28 50 29 34 40 18 32 20 34 60 48 21 42 30 58 24 41
31 -11.404891966268107 -9.3211107008497738 36.713554746606732 231 223 191 0.52977604606901452 19 115 15 118 16 140
33 9.3165776607690276 -10.10173967471991 34.880279798882455 147 156 165 0.57192904843020653 19 128 15 302
425 -7.3172785177341133 -0.97818433580417119 34.535181796160579 228 222 198 0.73240298184337493 60 53 16 90 21 53
34 -6.4807142228000671 -8.3798005046731596 33.132059692929175 160 159 157 1.3345269343275636 19 131 15 247
35 -13.404049176835938 -9.9109986403207522 40.288528252459081 107 110 117 1.2941874837666498 19 132 15 246
36 -13.232262392995061 -8.7105755790185206 41.282270682610196 97 98 98 1.4996603554087162 19 137 15 238 16 80
37 8.8600293925946083 -6.4048737881704696 36.22187120679191 163 162 158 0.32930153178610855 19 138 15 130
429 -2.0606200870656806 -3.4644756304108233 35.772877516577488 148 134 123 0.74696375601175879 60 151 30 95
38 -1.3861450361455634 7.8531263067698669 12.385904600502238 247 225 211 0.60583317931065206 19 145 15 158 42 119 54 48 50 47 20 45 60 78 21 72 30 83 24 51
39 6.2971833674784428 4.3935311366629746 19.957537294806368 95 103 119 1.082146068033887 19 149 15 148 42 117 11 82 54 94 50 59 34 51 18 55 20 52 60 87 21 63 30 78
439 -1.5449057627915943 8.5049550622808407 11.851314129991788 197 229 249 1.4700565412013382 60 3 21 2 30 4 24 0
40 -2.7643639849588406 -1.2556814006384427 34.551340506881949 209 202 186 0.90983065198959023 19 154 15 107 42 84 11 58 54 55 50 42 34 44 60 71
41 1.1332852211895736 -4.5206995279422646 32.791877009774034 192 172 169 1.3216802250850852 19 157 15 219 42 195 11 215
433 -4.2807058326003347 -2.7689620193505551 33.997219753338108 163 146 136 0.13532381565801954 60 220 16 405 21 127
42 7.9994084992248498 -9.6071587397431077 45.6964092226644 214 212 218 0.22309071035223679 19 164 15 223 42 99
43 5.4343944632328114 -9.2380946070804644 42.031536580320434 83 82 88 0.3964305484622811 19 167 15 128
427 -12.834155014516007 -7.820244742228561 40.484483942886285 166 161 158 0.2008320738942129 19 426 60 206 16 276
44 -14.125346787357568 -9.3202935636935962 40.94628761388627 180 180 182 0.75864699227209387 19 168 15 290 16 158
45 -10.720077299746825 -9.6274681558459783 39.948050466611939 184 185 179 1.5544754400168113 19 170 15 120 16 177
437 -15.266143449984481 5.6095931651536839 25.597637379667248 179 174 155 2.8375154942118543 19 48 16 70
46 -5.3753519584565463 -7.8550423258213611 31.181151160684038 242 236 222 0.91607703560247622 19 173 15 343 16 110
47 9.8938999825377199 -14.123395585392577 43.593973367052037 163 169 175 0.14596053361697259 19 179 15 253
447 -0.25637460573348231 9.3977278456353872 10.79682931604566 204 186 182 0.66282913334508464 60 33 21 35 30 39 24 26
48 6.4097502682611527 -12.654063077185917 38.258987746874766 207 202 199 0.43938810303589987 19 180 15 254
49 6.33638650859079 -13.038747006992908 36.357760028176955 228 227 232 1.3258285418754212 19 187 15 172
441 7.1799857780548511 12.562340472293947 14.577484800203845 150 159 166 0.51501723902854546 60 16 30 12
50 6.5340792367751579 1.3215922478224436 17.498091473186431 176 182 196 0.68969124631258882 19 195 15 318
51 7.9551905570854311 9.5064258343848191 12.856538534059325 224 224 226 1.8149250980417395 19 203 15 89 42 71
435 -11.018562267726786 -7.5278257999333587 39.607107907823504 120 121 116 0.73079699314976987 19 626 60 316 16 693
52 7.8365753248249934 9.2117488751684711 13.123347291354362 188 187 192 0.62749448103815286 19 205 15 179 42 173 60 200
53 -0.87704252415027462 7.6930084556705927 13.367560178258174 252 184 158 2.4632883294667276 15 329 11 337 54 99
445 8.6434547159203277 6.6062900354399172 17.828990378673424 119 123 132 0.8105531673138886 60 25 21 24 30 27
54 -2.4043584762233987 6.9609723301880573 13.317851131695852 248 176 152 1.6973381000962624 19 214 15 449 42 476 20 86
391 -1.9879254771785848 5.4782386204932978 16.069299733582351 47 49 61 2.1323276347614799 20 8 60 18
56 1.6610359877452914 -1.719057659235532 35.599691911177835 204 198 186 1.210345281856759 15 141 42 108 54 32 50 55
57 3.1201234153573538 -1.6030744749504096 35.88508117978256 206 197 190 1.4661299028908106 19 223 15 142 42 109 54 33 50 75 11 72 34 48 60 83
385 6.4424002898044579 7.9418949117877604 23.347799478128902 162 159 152 1.7344841270355429 19 16 20 21
58 -15.933522639804037 -1.6145983033960398 28.794737068097071 202 196 182 1.0990843474768686 19 224 15 67
59 0.85883425166667604 -3.6030608253152887 37.201187877755302 203 190 184 1.2748876803423719 19 226 15 215 42 103 11 103 54 75 50 50 34 79 60 82 30 74
61 9.2212775026376601 -5.6356195671780975 38.420942627277675 164 165 160 0.92099021699481687 19 230 15 217 50 49 54 58 16 156
389 7.6211304586034094 6.8595286648378719 18.267316432444179 144 148 160 0.42411304391727589 19 11 16 9
62 13.83937232544983 -6.1042606711509242 38.614416606442603 189 189 191 0.76512870274000377 19 231 15 134 16 159
63 -15.601468969068472 -6.153679525258779 38.089851142700162 191 185 169 0.83867476783715011 19 232 15 232 16 152
463 8.0792391303769033 17.651899037110372 15.774733770469087 185 193 212 1.6318578405285298 60 203 21 174 24 118
64 -5.3047038123577961 -5.8021471948278762 34.164517303722278 179 155 131 1.48607089543939 19 233 15 304
65 5.3579912622388459 -8.209115123997929 43.169511235506178 78 82 83 0.28041573968633471 19 235 15 221 11 106
457 -0.54894589721496567 7.9377469167746488 12.080292746648862 242 236 240 1.4645361973540429 60 79 21 104 30 102 24 101
66 8.1637131261768676 -8.3422961270857705 43.137381834572722 160 161 156 1.6041884494857288 19 237 15 405 42 202 16 160
67 10.489429308844613 4.5046849870400818 17.750823358284947 19 60 101 0.72264133250587714 19 244 15 448
451 3.3758092438797505 3.5983295552351091 7.509739478310987 107 110 124 1.3919982365547847 60 90 21 51
68 -2.1486912265927489 7.3001364310730406 12.970249765883031 255 197 165 0.81612889686948054 19 256 15 326 54 98 50 68 11 149 34 102 18 78 20 64 60 194 21 124 30 123
69 0.2870550177048185 8.358082597601399 12.037047035160377 206 185 196 0.33464844843929414 19 264 15 334 42 297 60 142 21 102 30 125 24 76
461 -1.8000628276578436 7.7202971293674238 12.435473388774277 220 178 163 0.36971268456705697 60 195 21 144 30 135 24 105
70 -1.984286866854053 8.7313667090303007 11.298797393771688 239 239 251 1.4323739765772316 19 267 15 188 42 274 11 92 18 71 34 202 20 71 60 207 30 126 21 92 24 72
71 -1.8146009432646157 8.8634404638150635 11.198504888763626 185 206 225 0.84259527723785921 19 269 15 442 42 375 11 139 34 98 18 102 20 78
471 -2.0840327457409926 0.8824987631881297 4.0946538121391978 213 204 187 1.3736809589830175 21 1 30 31
72 9.6324405552503105 -11.865767181766541 32.231670867169598 194 190 196 0.486391137381529 19 283 15 271 16 303
73 2.9779079433787943 -8.4949529250341165 25.754910647214384 180 183 188 2.5777519893688998 19 290 15 273
465 -0.24190734661618632 7.9574426701747285 12.52399478766772 254 228 242 0.42212309758095667 60 285 21 225 24 137
74 9.722344715665141 -9.2405835612498244 28.458344372520585 202 202 201 0.23604438206870057 19 291 15 116
75 9.1663232234559384 -14.202612943272845 42.087215223687188 211 212 214 0.44004283779367437 19 292 15 278
459 7.2797619528769104 14.439437554151752 16.740021148615508 166 162 151 1.0413280400799538 60 132 21 106 30 60
76 6.4212759625932216 -12.200502789397341 40.14040015671597 194 193 189 0.63945097364386716 19 295 15 248
77 4.9419496349686574 -11.009327818012194 39.482680249851732 168 159 160 1.1457192277410324 19 298 15 242
469 -5.2606608214161996 2.4806701887273981 12.065555076568414 233 231 206 2.7474925225963958 21 45 30 19
78 8.2224484174496268 -10.349179095508797 45.81990832681776 167 167 165 0.035485991429153152 19 315 15 305
79 -12.006122760412318 -8.0804394083186377 40.658503795986888 176 175 173 2.0675874940970478 19 319 15 233 16 172
479 8.0557416443597205 18.827653600456387 16.347043119440514 186 191 201 2.3974046421706636 21 70 30 108 24 102
80 6.2890731601128005 -9.0591046584763486 44.789756228521249 186 186 188 0.48689051477299716 19 320 15 129
81 -11.103184729068751 -6.9716256102800322 40.070136651797519 140 137 128 0.66504413225125614 19 324 15 266 11 132 42 255 60 123 16 281 30 91
473 6.7101361708305367 5.2421308734401579 26.797097359442692 202 194 181 1.9615310553048622 21 52 30 44 60 55
82 -1.4439296570066251 -4.4672494083575716 28.459322508108436 24 4 6 0.70071847280304367 19 325 15 307 11 119
83 -15.243796296479026 -6.220294296798448 39.000091923750993 142 138 137 0.45960267729024573 19 326 15 419 42 300
467 5.9472461736863993 3.9553436077318387 17.918286798762249 151 161 173 0.97551236327042867 60 158 21 83 30 47
84 -5.054700222863981 -5.4605478383071233 34.725899011195722 212 191 172 1.6139918164118465 19 327 15 310 42 261 16 243
85 -11.020130090210731 -6.2959168190135921 39.38749707832676 197 196 179 1.3493284190793531 19 328 15 265 42 429
477 6.860831433876446 8.6880463238065193 15.026236364703568 156 162 174 0.87772124004314411 21 48 30 82 24 60
86 0.11999150429390507 -4.4221364508718972 38.525420948829293 153 142 131 1.2088092732551088 19 333 15 216
87 -3.3521959733274467 -3.0495633475413362 34.259062566035496 161 147 132 0.95326490633286731 15 315 42 207 11 112 34 110
88 10.256237788466782 -10.340793234639333 29.904508531234193 166 166 171 0.63609341699369881 19 346 15 276 16 341
90 6.3187224556273556 -11.553012332639268 41.250474898835627 165 163 164 0.22571949186877138 19 365 15 291
91 1.817028021555436 -6.5447320348320064 27.262600536215437 85 59 69 3.5300610671471437 19 368 15 434
475 1.5055092637411591 9.2434433659167734 10.023401263234271 201 203 200 1.9591541868178255 21 33 30 62
92 1.4093248022013156 8.656663769480808 12.248471369914638 177 142 158 1.2795675616595192 19 383 15 573 11 185
93 0.45698152973456124 8.5117557173043714 11.873797643095955 245 232 236 0.57522837399087001 19 385 15 360 42 279 11 136 34 92 20 111 60 198 21 101 30 115 24 100
94 -0.44715792963091089 7.8697138073915314 12.332729202606837 237 210 217 1.2170799870095887 19 390 15 535 11 344 54 151 50 134 34 219 20 108 60 244 21 142 30 134
95 -1.8030886929492485 7.7587091172664557 12.493045268224648 216 183 160 0.50134394102727653 19 393 15 372 42 385 11 170 54 143 50 131 34 126 18 106 20 107
495 -3.3679696783599256 0.68846473544828657 19.610334638745417 192 183 168 1.536774549992781 30 21 24 33
96 -2.044422504641755 -2.7603209586200612 33.370019838427574 190 183 168 1.8771310374936703 19 409 15 396 42 328 11 217 16 406
97 -0.47432919094201076 -3.6019315579114495 37.586993301860957 197 183 174 1.2682510258300392 19 410 15 397 11 304 60 174 50 149
489 -1.2627586373295956 8.8835505960845609 11.076732102554617 242 252 253 0.59630340277193739 60 272 30 189 24 145
98 -3.9537164459513803 -4.6429432471847027 30.490571432469714 181 160 139 1.173019055671592 19 417 15 412 42 304 11 261 16 416
99 -0.78548323311318313 -4.6922847199288684 29.63595779826246 25 2 2 0.50162022674333029 19 418 15 309 42 162
483 7.5335412976531506 15.470455411403396 16.431197425899747 164 168 174 1.5371598336251886 21 100 60 252 30 137
100 6.0250223045649678 -7.8596889057834147 43.584709479815999 190 191 183 0.41855685296173961 19 421 15 312
101 -0.044642831593876602 -4.7366509291950756 28.819195847890686 16 0 1 1.3624582677421451 19 422 15 414 11 208 42 301
493 0.58834906764860317 3.9441576284033442 18.401658833747693 145 144 142 0.12460466249957711 30 20 24 8
102 -1.0536521600560962 -4.5382022145323662 28.279334453469048 162 121 124 0.88810184386928592 19 423 15 416 11 252
103 -3.6261721503560218 -5.0517920188211445 29.436796154385156 145 103 87 0.46762926635057589 19 424 15 579 42 420 16 419
104 6.7884968452688872 -12.738497356259662 36.940457544158512 185 185 190 0.84565047078867894 19 432 15 275
105 -9.6584395628080859 -10.375197901995058 43.9155820296209 215 216 211 0.29681970683339254 19 441 15 435 16 375
107 1.651886134239807 -5.7190071330494652 29.876420154255936 167 136 133 0.0010504590724889045 19 452 15 418
491 1.4392010032982623 8.7878155723256608 16.37275401470713 139 136 129 2.0176458985136261 21 6 24 2
108 1.7112398225584127 -5.3642974919379665 30.136675162680632 100 78 77 1.047588551973321 19 453 15 415 11 255
109 1.1773303823103369 -5.1180034491649753 30.367597694237148 66 37 33 0.35192419652286455 19 456 15 409
501 -0.23409947812925008 9.3204829248514969 10.87727127231935 230 215 208 0.21257686050582242 30 175 24 143
110 -2.8685905763020445 -4.0112720486879301 26.347440036259265 226 198 186 0.97846578249578864 15 497 42 256 60 408
111 4.7116312492821377 -7.3711519198825304 42.512633515124712 123 121 124 0.66980506027573172 19 463 15 403 42 318 11 309
112 -2.9870002966770866 -4.2679987992385042 29.693353781638173 177 149 126 1.1145743867859017 19 465 15 501 42 306 60 205
114 -2.7961336314307674 -3.4987434060275713 29.656723805031707 159 132 115 0.37051034491453239 19 473 15 506 16 433
115 0.10932817761535869 -5.0321995063309775 39.151494843042435 145 132 123 0.87896477365125847 19 474 15 509 42 368 11 313
499 6.9897307960904653 8.7311032924479548 25.042402059759095 180 177 169 2.9571035165085653 21 114 30 79 24 81
116 0.030491552079789874 -3.9654810047113855 36.329036765965981 153 141 131 1.1939189805323041 15 514 42 322 11 296
117 -4.3680684690778744 -3.1528543913491327 33.921815926203635 204 191 175 1.5877029973494938 19 480 15 511 42 421 60 152
118 -4.3165997326405119 -2.7553751005005274 33.746392958273688 161 143 129 0.46484909470012248 19 484 15 515 42 323 11 307 54 132 50 147
455 8.2894026930393654 9.6861400055425495 13.164245862082975 227 227 227 2.4432976872669321 60 197 21 80
120 -3.0223513274757208 -1.7968032805517782 31.547491635123627 189 162 141 1.5310857988628304 19 487 15 394 42 413 11 187 16 403
121 10.338437910669926 4.1667940767053153 18.088525850466709 50 69 97 0.72589815556752735 19 490 15 234
123 -0.7583969598361554 7.9591038396269012 12.338891950951 239 205 204 0.92778985188342078 19 517 15 566 42 492 54 160 50 171 34 258 18 134 20 128 60 280
124 7.5099816034782547 9.3359076858760943 13.46724300350575 198 198 201 2.7580159816086018 19 524 15 180 42 172 60 333
125 -0.95810144101912242 8.7249930684553245 11.125511640149972 213 225 211 0.12921776787614686 19 526 15 572
453 -1.3793556695794196 9.7291388741701983 9.9548365299159887 211 209 210 1.5572413996075614 21 71 30 85
126 -0.23613976109104537 9.3530800116217439 10.837499372319908 235 210 205 1.3305433931742845 19 534 15 574 42 527
127 1.0282699106387847 -4.8509106547178229 23.450952049767995 184 160 160 3.0853538842364818 19 574 15 431
129 -3.0336149127381402 -3.6947918490504361 29.513663525248816 213 180 165 0.53921733303466912 19 602 15 504 16 506
130 -0.78932705984033813 8.1869187140672075 12.159524054990371 255 244 235 0.35263264869510441 19 614 50 184 54 180
131 13.18415939351139 -7.0637611178158419 37.722596954265889 141 140 145 0.35045756930892813 19 627 15 508
132 1.4370866093902839 -5.2185085696348823 29.614804561431178 160 125 112 1.2116411631339767 19 628 15 499 42 430 11 380
133 1.8198120731409326 -5.1265242764312582 32.156546868877733 124 110 105 0.82571630492643544 19 630 15 539
134 6.4484093240293614 -7.7547012871171948 44.085466927657784 168 165 156 0.79028236017485576 19 634 15 507 42 369 11 390
312 -0.85968063645427617 8.414158788739055 12.142281234726635 255 239 240 0.098919417406671734 54 163 50 186
135 -2.7066316800305668 -4.3520034183269356 28.873327785032611 108 86 77 0.95541398947161837 19 637 15 500 16 580
136 1.4960602623139387 -4.7325931959355403 31.263474352877246 111 94 88 1.0028406774099685 19 638 15 404 42 315 11 213
258 -16.31428379138049 5.185323425072017 26.375577473754625 147 143 140 0.76448727428044472 15 209 42 143 54 91 50 73
137 -1.7126587004510063 -4.1725445344178498 29.112597566735253 101 77 79 0.38265677828367795 19 641 15 537
138 0.60053045837691987 -6.6715712140135039 26.796134284381438 54 36 50 2.0137080187655663 19 667 15 528
268 3.571291892319862 1.4417918083054992 3.8181790422044135 0 0 0 0.45014448504843363 11 270 19 155
139 -1.6353742159973348 -6.9695277879718898 29.049161568767964 94 85 101 1.6102440178963975 15 486 16 477
140 6.4214432555019956 -13.252498322871112 38.985351050746672 206 204 205 1.0621514813271231 19 681 15 550
141 -11.042806045171877 -7.2434575800589815 39.225260701242625 198 198 190 0.33474683657100918 19 701 15 575 16 694
142 -3.0530148649243896 -4.7179958162392035 29.742658290761909 164 142 137 0.47944194882477015 19 703 15 531 42 579
256 12.508510083377354 -4.041615563468075 41.144178917822956 126 120 121 0.8417039907071926 19 105 54 87 50 54
143 -3.2861031429964442 -4.6029509669441895 29.684644895606464 152 129 120 0.61005551929731605 19 705 15 603
144 -1.2342673401019644 -3.881774554983163 30.318191253254927 165 136 124 0.7440772243225422 19 709 15 545 54 167
266 -1.0439042185092238 8.3939833829368684 11.788673058083953 234 205 210 0.58420914543896985 19 521 54 127 50 139 34 204 18 107 20 113 60 247
145 0.90308375546937636 -4.018451964026589 36.05443353658935 159 144 138 0.6536065840000842 19 712 15 513
146 8.7607540212635779 4.6038881245114522 18.27790051562501 60 76 121 0.0053564374070652013 19 715 15 472
276 -0.55937724263235467 7.8471000754781723 12.551784120217535 255 235 238 0.72242330451327663 11 276 19 612 54 157 50 172 34 211 18 120 60 286
147 -2.3713329805473555 5.5285622382729569 16.947965408502313 5 0 4 1.0984320479295322 15 13 42 10 11 4 54 4 50 69 34 2
148 8.8731493446149212 7.4704697968829352 13.234669325954481 204 202 204 1.4529282242034709 15 15 42 11
270 -1.9292000112307053 4.3704197669096274 15.099265153881612 28 23 28 0.22433209399957382 11 325 54 139
149 -3.0177982382776722 0.37047819340732407 34.049333878470129 172 163 141 1.5696662352133026 15 30 42 19 11 17 54 9 50 11 34 15
264 -2.6067074843764169 7.2156352865205857 13.114488814072525 247 178 154 0.91236765533005504 11 331 42 367 54 121 50 105
151 -3.9519830200958377 -2.3482905215708878 34.738673870379841 201 166 136 0.6860169407703316 15 52 42 30 11 27 34 30
152 -3.3809584176928262 8.825471595348171 11.242630947273982 207 231 241 1.4435896952603269 15 70 42 56 20 26 19 53 60 44 21 34 30 38 24 27
274 10.354934118106831 0.26883680020680445 30.267267237599121 162 152 143 0.49093161656494672 19 87 54 154 50 154
153 6.5232217479296466 -0.36919888354391367 25.154660728258989 185 178 172 1.7849056795594971 15 60 42 64
154 -2.2338705553471638 6.3072815117277177 15.851376547111647 110 100 111 1.4256738375675284 15 81 42 91 11 93 34 82 18 67
284 -4.1071850750639802 -2.504020770189761 34.325620062805001 201 176 155 1.1904234986133009 19 486 15 517 54 130 15 316 42 210 11 111 50 141
155 -13.589003625454321 9.5463800780437911 21.758218084389433 147 142 136 0.97951630240201337 15 83 42 92 50 28
156 -1.3184756543487148 10.045889514746507 21.680159934790005 235 183 196 1.5932528889299904 15 367 42 93
272 5.4134128663600647 -5.3077672059257672 40.586580339016287 165 166 160 0.81482044544673271 11 220 19 475 54 142 50 146
159 -14.478144630081648 6.5559860506485457 25.308113361633797 152 148 136 1.5543850314391641 15 79 42 115 54 38 50 43
161 2.5804522035601782 -0.64381571853011554 35.222188630819574 153 140 120 0.6679894996321778 15 143 19 221 42 141 54 67 50 57 11 97 34 49 16 236 60 85 21 86
163 -2.485594018014516 7.5856198498596328 11.870363352765965 251 197 182 1.0446564784549477 15 195 42 155 54 123 50 71 20 82
164 6.193694837088807 9.0158592641568998 25.310719235970428 123 111 112 0.28854416517172743 15 191 42 180
165 1.6724865767479096 -4.2440787868707961 31.993418111208403 137 119 105 0.92768683946767772 15 313 19 414 42 203 11 216 54 124 50 144
166 -6.4303196029109921 -3.514619635034216 36.703965476789961 181 159 139 1.7232601767062565 19 334 42 205 50 93 16 511
168 -0.48813595966835049 -1.0573202338598915 35.987705910847886 169 162 146 0.93516846236802142 19 153 42 216 11 99 54 65 50 56 34 64 60 66
290 0.19345890516930808 7.5725050899985957 13.157857380527064 137 120 127 1.7304298108040272 54 18 50 19 34 34 18 15
169 -3.532589801423164 5.5922264016158234 16.449329333950004 90 88 102 1.8261315261738504 15 321 42 227 54 114
170 -6.0222636517594612 7.4779353689871098 23.929043069676336 118 107 113 0.13898412693791556 15 203 42 229
300 0.72617796114816524 8.6492818639322167 13.721705956116674 166 133 150 0.54581315727875745 11 351 50 107
171 6.6962991799062275 4.9753997534316792 18.946587610552029 110 113 128 1.6963098505620973 19 245 54 106 50 123 15 268 60 226
174 -1.9666934276502224 7.6420297940312505 12.574174414799174 248 196 172 0.66370724974385154 15 374 42 267 11 168 54 149 50 129 34 198 18 100 20 83 60 192 21 143 30 124 24 104
288 -0.36584488812162047 7.4350748301000928 12.22232597969453 249 238 241 0.16000353367789477 54 20 50 17
175 -3.668933346185693 8.5485879561493245 11.168259211474689 150 163 172 1.5724036435140258 19 277 11 172 34 101 42 269
176 -0.55122376286202923 8.3235143022007598 12.005680394562406 255 230 231 0.49512009772668847 19 263 42 270 50 66 54 79 18 73 34 85
177 -2.1470806078917848 8.824011905469602 11.18841920799677 185 203 223 1.0299174794727797 15 363 19 268 42 276 11 141 34 131 18 101 20 73 60 162 21 156 30 159 24 108
308 -0.60022491238381348 8.6826228852243581 12.092028822332241 238 202 216 0.96349845840533677 54 128 50 163
179 0.75353226167382881 -4.525610041283791 30.481540037045544 132 99 93 2.3100407660971802 15 473 42 312 11 260 34 182
180 -12.366119165953213 5.229361455360082 16.045781562807033 112 115 120 0.99404829509318904 15 521 42 341
302 -0.19414513963399382 8.1999795055628848 12.482721198439503 238 191 217 0.79248612118286477 42 239 50 109 20 67
181 -12.084233099292403 7.4857198731941459 17.545917785286139 133 135 132 1.5295468014599993 15 386 42 355 19 49
182 -1.3688719691953291 6.7129155738586093 11.755308480145468 168 122 117 0.70898677545360234 15 450 42 364
296 -0.25389353409386106 8.2693460503287408 12.132125707783134 247 193 219 0.47245190404316129 54 78 50 63 20 57 60 97
183 -2.2709896595333756 8.7258661816288416 9.3623424257884587 0 0 0 0.87139041706830522 15 465 19 374
184 0.24670422334404885 8.5652721151595816 11.828629562599495 221 176 187 0.40381533291965066 15 462 42 374 11 183 34 93 18 145
306 -2.0134594348249903 7.5546893470958505 12.963622511926278 231 164 146 0.43070360856541967 11 165 50 127 34 123 20 105
185 -3.5421285185637164 8.3795434822641646 11.518445726280531 155 163 174 0.52151798646450276 15 368 42 383 11 145
186 0.14439369265315835 6.9806208443491862 10.661649761086753 176 134 138 1.1112063495003437 15 563 42 386
316 1.5749274233891251 8.1642755367689475 12.449433220002243 157 117 128 1.2514218235042103 11 355 15 569 50 214
187 -2.9606008488825801 -3.3307951801745159 31.552525761983766 179 148 124 1.2804523597057755 19 584 42 422 11 311
188 0.88995294876756381 -5.0905237429019428 29.718314840236133 117 83 88 0.9778157461205792 15 413 42 427 11 254
310 -0.25149375171373356 7.9248459756695073 12.451365426069673 253 227 242 0.53300915624316381 11 346 54 159 50 170 34 207 18 136
189 0.53863397141634672 -4.8204086786709519 38.119109435900299 179 159 144 0.38617094196871787 15 510 19 331 42 448
190 0.5539324889484335 8.5240983402172148 12.652800763027374 197 173 180 1.1081735135820627 15 570 42 500 50 138
191 6.4452254866393313 10.013546930026395 21.155107367937887 146 141 142 1.6780500352895871 15 466 42 506 54 135 50 125 18 178
192 6.6784023792837859 9.1605221483657644 14.12649813025533 164 167 177 0.30416724068494594 15 479 42 508
378 6.4524642563883958 9.9144172675642412 21.217630922404432 129 136 144 0.79473133821583097 19 258 20 100 60 181 21 139
193 -3.3291953421246738 8.1304016160812793 12.093954978586188 153 171 181 1.4859439015926801 15 371 42 548 11 463
194 -12.926726558249666 11.969388774054506 19.155865821183959 133 132 129 0.54009776515836472 42 55 11 79
376 6.6716726210368602 12.983379693949605 20.814150764137654 169 173 184 0.81738957036133564 19 270 54 105 20 85 50 111
199 -12.790491360044724 13.83087099767773 17.770901513273728 129 129 125 1.4445411642159225 15 157 42 69 11 59 34 70
202 -13.655894171618836 13.260316046372436 18.038978698581875 118 115 113 1.0389566106561576 15 335 42 280 11 151
332 -0.65775252733948919 8.4450001546187217 11.610340073655509 254 242 238 1.3633844210433519 11 140 34 136 18 89
203 1.0311014234964857 -1.4583361755239577 18.571568273197006 143 116 100 3.0587763100307681 15 544 42 314
204 -7.7810731438092811 13.680864829583468 15.320611947081174 144 143 141 2.40610260301401 15 17 11 5
326 -1.3695760540496671 7.8388057541199201 12.371868396125539 244 220 209 0.26817774069767869 11 63 34 56 18 48
205 7.2584230450910807 2.4549509182538012 21.328044736680106 166 173 179 2.2632789859975424 15 147 11 42
207 -1.8641802955527713 7.7513176098687993 11.337730012245064 209 232 248 0.8469068169344407 15 161 11 64
208 -16.979296800392611 0.23314223387709895 29.485678897977326 206 200 186 1.2832761277980136 42 81 11 65 54 53 50 46
330 0.30160113877416961 8.355547176663892 12.032632462857249 198 182 192 0.40848093555215065 11 138 34 97 18 75
209 -14.883313358994798 5.684169460064445 25.264555326891344 178 174 163 0.21411374317683338 42 88 11 73
212 -35.200003103632255 28.961647550088593 39.112726181358759 148 148 150 0.17654031827376662 42 286 11 81
214 -2.85264623311532 7.2589052327846462 13.368658672851289 164 146 142 2.7093678277810387 15 196 11 150 20 103
328 -13.29854737700942 7.464216437625824 19.644100355454945 148 146 147 0.090097679794675228 11 94 34 69
215 -1.5523514963672098 7.7060629223827872 12.529502067352814 238 214 188 0.56991051219692068 15 373 11 171 54 100 50 67 18 70 20 65
216 -16.176948357503619 13.42036676561381 20.579917514171555 129 132 136 2.313481528340688 15 331 11 189
338 7.4324520441047905 4.1782569683560382 15.482020411174 36 62 91 1.903025606477553 11 146 34 302
217 7.1879767452071839 -3.8083917656895245 38.941363813453052 143 138 132 0.68503492134407717 15 165 11 223 54 84 19 412 50 92
218 -7.169741971465263 3.7172079207553703 17.613150107907277 201 201 205 1.5041363396192795 15 377 11 227 54 69 20 48
348 -16.220564643180023 5.3312125239771362 21.921337193473171 57 62 66 0.77683036469966105 50 87 18 86 54 136
219 -1.6228302803435859 3.6795193559578045 13.423655151348061 70 65 64 1.8635001502771416 15 86 11 233
220 -12.239608261859628 12.718843935660709 19.099869332330808 169 164 159 0.65496541547349607 42 241 11 235 34 120
342 -9.0684334680619383 6.798204013287843 16.975491737145965 164 163 158 1.2139418770197516 50 2 18 0 54 0
221 -18.339927737463405 1.845109441499085 29.635889736151338 114 114 112 0.90989799749449674 42 525 54 178
222 -3.2207457837380549 8.522673348995994 11.422486218944579 179 206 220 1.0230590248165965 42 380 11 278 54 126 50 137 34 143 20 115 60 160 30 142
336 -0.087477871903402643 7.6895093898276263 12.999451685824349 177 137 156 0.90630728559985962 11 341 34 257 18 115
223 -0.42563700386223668 7.657452451916396 13.011561413792728 238 187 202 1.9704094846468685 15 456 11 279 50 132 18 119
224 -0.72881897846559618 7.6932392024472991 12.778907707669513 255 201 191 0.7322106536280758 15 595 11 280 54 175 50 151 20 129
282 -1.3477615111251189 6.1240881694105909 15.899063255401046 65 63 66 0.92520732295717001 11 466 50 124
225 -16.304040110436748 14.751754280093085 25.032754844138655 170 166 155 1.9135995572595859 15 366 11 290
356 -17.378333306987077 5.4052355183055232 23.182687815158843 90 100 101 2.1312868407985008 50 206 18 147 54 214
227 -1.7289914105158717 7.612802258035237 12.739057157682359 217 175 153 0.56705407012617381 42 485 54 158 15 454 50 128 34 251 20 106
228 -0.61445160029308976 7.9599513426616735 12.379321350808945 254 237 238 1.0403366231689923 15 600 42 382 11 345 34 210 18 135
229 -0.89783952468974981 8.1408045788656782 12.037347462235051 237 203 199 0.89760756256026963 42 494 11 348 54 161 19 590 50 169 18 125
230 -6.6195572060687269 3.486882052039928 17.515657223997419 109 107 101 1.7726041528637508 11 75 19 219 15 108 16 229
231 -17.657831064946784 1.9750131789018703 29.231209776888665 181 177 175 1.4330358281318993 15 140 42 107 11 55 54 66 50 53 34 60
232 -5.3861558639133742 3.365708317995288 17.551044709067735 216 212 201 1.7507117480044641 42 110 11 76
354 6.4880186042401675 3.2778925127141245 20.207975688724819 114 118 127 0.32660237829093386 11 40 18 20
233 -17.719188746549555 1.2389734848215095 29.91299136161734 88 89 84 1.505499250644261 15 171 42 199 11 114 54 110 50 94 34 112
234 -1.7137283458088219 -4.8422387778218647 25.81158318374796 44 0 0 0.0089132824868232603 15 424 11 202
364 6.5438033749940105 3.0761130826499983 19.298055619269061 102 110 129 1.2771358176876233 54 29 20 30 50 36 60 73 19 91 16 232 21 54 30 48
235 0.90872828412993123 7.1781524509527266 13.750458137839052 121 115 119 1.8620844613166705 19 5 54 1 20 4 60 8
236 0.52527956169570855 4.0618640965074979 17.872388296221157 134 134 136 1.8739397969515137 11 7 54 6 50 5 34 5 20 7 60 20 18 4 21 17
358 6.427903129472158 8.828894311181962 19.433073670730838 133 142 164 1.2813643723197523 54 8 20 11 50 8
237 5.3663983028153268 1.6715313671636527 18.30248889576324 173 178 174 1.1126383521948153 11 21 54 10 50 12 18 13
352 -1.774891680349334 7.6100812514989054 12.551506852938612 218 176 161 0.52477861347798083 11 334 18 155
239 -2.5188752089817168 2.0016628063759727 34.088929044986934 191 184 167 0.54377533738510575 11 56 54 21 50 21
372 6.5497629128984842 8.5301309782473016 14.093556933489678 148 155 173 1.5700400861679462 19 260 20 63
243 6.5291797905732452 1.2927618106946168 17.39447586850039 159 172 194 0.15576946605656725 11 51 54 41
244 -3.3655975436129038 5.2773093795341097 20.386260040490388 112 111 115 0.8863830764274061 11 323 54 42
360 6.3504842918350359 9.8305151231934111 15.328336289712203 127 134 150 0.87843749303396246 60 15 21 10 30 7 24 7
247 -1.026029782159706 7.6731470044999055 12.621849779828954 251 175 150 0.70045466140026791 11 62 54 46 50 32 34 72 18 47
248 9.5983694595549061 -3.7884753618073392 38.671700045819037 52 52 48 0.35888325699075246 19 85 54 54 50 205
370 -3.0291594999618714 6.3767461340649589 16.021308282317211 138 136 137 0.66961905040834258 54 44 20 50 50 34 60 94 21 78
249 4.3672857077351246 -2.0547815660053632 20.266801275736839 177 169 156 0.1033665059975258 42 221 54 59
250 8.8801407112542083 -4.6124542982911247 38.329273199391579 168 168 167 1.2391949791052377 15 136 54 63 50 51 11 70
380 1.6652952870577074 4.4591899334997089 17.211024902481601 209 205 204 2.1318643858717365 19 95 20 116 16 296
251 0.78475396586155388 3.8338449171017968 21.796454533641413 213 207 193 1.2756056657880199 11 453 54 70 50 85
374 -1.3092383148916267 7.4842746064875794 13.687282294068911 166 136 134 1.6325009534018975 19 728 50 106 20 70
253 -0.059901157413191262 8.3289146931562179 12.792772216944883 241 192 216 2.4510832355933303 42 262 54 77
254 -2.0166804574257062 -3.5120372446985018 36.317786412377359 161 139 128 1.6054513705250475 11 104 54 81 50 78 19 335
368 8.2042344720072808 9.1622548363083691 13.18825334514616 174 174 174 1.5797009516692844 19 61 20 43 60 45 21 47
255 -3.7181659278907353 -1.2037899030376598 34.502329467047694 201 172 146 1.5666122562077855 15 212 54 85 42 138 50 52 11 163
259 -1.0083438541168577 7.4912460861419587 13.123771600375814 0 0 0 0.11255907667878642 11 148 19 211
261 -14.742989057798386 6.95290693391589 21.676915086275013 149 144 136 0.92568989514825406 15 320 54 113
263 -2.2490560862851017 6.6951099372257881 17.031934744857669 72 66 70 1.2468138137714595 15 200 54 117 50 157
265 -2.0161543764251326 7.7533878944103085 12.426201390484483 248 213 188 0.76415178558110519 11 169 19 210 54 122 50 130 34 214 18 69
267 -15.001864123882287 4.4676485777279016 20.844334554020531 66 70 69 0.92268463101242737 11 101 54 134 50 91 34 109
271 5.8516932544958618 4.3562177618614646 18.785581282962564 113 130 150 1.3332068839574531 54 140 50 118 18 160 11 315
273 -0.016113846590820689 7.74585158460666 12.842121255339352 247 185 208 0.99926718294939865 19 512 54 145 50 133 18 88
275 -0.62850159692942076 7.7557358347163001 12.646937772948695 237 203 201 0.39842966655182882 11 339 54 156 50 173 18 131
277 -0.75055500745644133 8.3841401970576417 11.913817906145992 236 213 223 0.54213768710989207 19 615 54 164 50 167 60 277
278 5.4822532705834686 -4.762314008241967 39.93827688844717 190 191 185 0.90075389184451971 11 318 19 710 54 169 50 161 60 358
279 -2.3107699326380695 7.1643253097039583 13.847516913836103 170 132 123 0.57070010950494832 11 288 54 173 34 163 20 87
281 -2.1671984688461778 -3.9643045898679232 29.211887962970422 163 128 118 1.2245154177115407 11 210 19 676 54 193
285 0.4217674040585922 -3.451850332925027 26.714019938478195 188 170 156 1.6013463247549646 11 50 54 50 50 97 34 45
287 8.3630532256806394 -2.24025008175912 38.86326051582256 194 187 168 0.68927684037465897 11 22 50 13
289 -1.8915506799169817 7.7300068748559108 14.843984685069323 138 121 129 0.78996320878914172 54 17 50 18 20 25
291 -0.19439785578857038 3.0728788839799273 18.806280921771886 215 208 191 1.0068600429177057 15 146 50 23
295 -3.583115674773421 0.78369098876085508 33.14626022568882 192 173 148 1.1727353521023052 11 158 15 264 50 58 42 260
299 8.312295989613256 5.805019353159647 19.176731154906353 77 83 97 1.9630907555390504 50 83 18 128
301 0.65781654290366309 8.2849211989655291 13.054023540066169 251 187 214 2.2461975102624749 11 91 54 152 50 108 18 72
307 -0.38263201010989495 8.0533568436363474 12.196799694122918 254 243 252 0.68146215579393077 54 125 50 150 34 130 11 176 18 118 20 110
309 -0.43932555090844755 8.1486286059128457 12.091826208730119 243 201 218 1.1264723069096718 19 519 54 162 50 168 18 140 34 205
313 0.62738159414756012 8.3462148934366525 12.283783575163206 228 210 224 0.021681380021904305 54 202 50 188
321 -10.527818632717906 7.0773058887143563 20.583382187752726 207 200 184 1.7644125693016495 11 20 34 17 18 37
322 -11.671971007092079 13.249590288745912 18.653714404213972 204 198 185 0.2362660531738211 11 24 34 19
323 -12.155230978046381 15.660713698613602 17.867107701912168 191 188 173 0.15810521551419413 11 14 34 20
324 -3.2614632814303497 8.5943643684604751 11.001108397775136 195 232 248 0.64814224210229332 11 36 34 25 18 21
325 5.3506074230976957 7.099431505136975 17.16770164990028 189 183 183 0.24617905060631845 11 46 34 41
327 -12.846383836009286 6.2865346655115903 16.294717341108818 60 70 70 0.26465842154494024 11 95 34 65
331 -15.536679233300429 6.5054696892015365 19.130948712942974 137 135 136 0.44901177500891232 11 226 34 108
333 -0.71663383435954031 8.38808713768824 11.857248284487881 232 206 217 0.92388106496602151 11 272 34 200 18 142
334 -1.0240638175718175 8.7441479799941035 12.268421477597093 255 243 245 1.2233488374455523 11 275 34 201 18 139
335 -0.29636548705713384 6.663735836139689 11.895240915591057 180 137 134 2.2324618967476533 11 283 34 252
337 -0.32193467387617097 7.7069411486338071 13.147786695963216 191 147 161 0.75051092752515858 11 338 34 293 18 121
339 -15.198250784394279 8.6347010418327681 22.859094479377728 72 72 68 0.64218887018305582 11 19 34 16 15 34 42 20
340 0.69871623352757417 9.8538852964699952 17.25416973775237 134 129 133 1.2788724224179395 11 3 34 3
341 5.5879584768806136 2.7907946066985669 14.015360363672542 163 167 178 2.2014557296216775 11 49 34 53
343 -3.8602105018970292 5.0391613811687241 15.668766841824301 160 159 169 1.0039430380163543 34 14 18 3
345 6.4435063545808795 4.0175668132381741 18.784706051215359 162 165 182 1.2621800013127298 50 60 18 26 54 43
347 -12.890584698504929 9.7471479729308488 18.040960423590683 121 122 128 2.6108081937682099 34 117 18 64
349 -8.9684599004624772 2.9560790371971701 17.02991569846596 128 127 125 1.20455663369165 34 80 18 122
350 6.1534358739106816 5.9032829770373478 22.307551825918548 128 125 135 1.3234047194762033 50 120 18 124 54 115
353 -2.6161444346106872 3.3562500009526213 15.977100335746746 146 147 162 2.1295187723339364 11 54 18 12
355 -3.041449413173607 7.824878659951076 13.067791072641597 247 185 151 2.7429220645105397 50 126 18 110
357 -3.3008301860140263 4.3680239661602576 15.250599124478052 155 157 155 0.39246203248889289 20 10 60 32
363 -2.3181639050446567 2.0830799942060834 35.991353855619323 194 186 167 1.3647572336320914 19 89 20 29 60 54
366 6.0747323130289637 3.9553844617886393 20.245002803565914 160 169 179 0.73939101003891683 19 152 50 35 54 71 20 39 60 74 16 91 21 62 30 93
367 6.4680550310226659 5.3327375353754887 20.829900853878499 153 161 174 1.8125977747095749 19 64 54 74 20 40
369 8.5889474635917153 9.1169252263136986 13.028882943872862 218 218 220 1.4862057585880031 19 143 20 44
371 6.2105861014726464 8.7219584936886658 24.898595796995895 148 139 130 1.1120616757980757 19 147 20 60 60 75 21 49 30 80
373 -5.9137730002178781 3.2234544311462807 16.517718781464499 212 210 198 2.0072270692870178 54 39 20 66 60 37
375 -1.5561923078056079 7.3329844800955311 13.288585650994856 0 0 0 0.30207470723512186 19 212 54 103
377 5.6300856798471335 7.2271467500030173 20.36169450913734 0 0 0 2.2295868571739734 19 251 50 156
379 -2.8682938128755397 8.0434568580163344 12.831525281502028 254 213 198 0.098508769297720053 19 515 20 109
381 5.2100605223480985 8.9080359250184351 15.209012321039255 208 215 228 0.12201026695958844 50 216 20 130
382 10.001804084031702 7.3662977721803333 16.292817423464633 7 30 70 0.3375471632009644 15 362 20 131
383 2.0682243979569321 6.7298727496395943 15.902896461001003 152 151 149 1.5825393560697423 19 400 20 135
384 -0.93693182587252066 6.0398949252452763 15.420186644413524 143 138 132 0.24316265370161264 54 185 20 160 50 187
386 7.0211775899998221 8.2903774242788231 14.910201018425212 147 152 171 1.4258231762823912 50 112 54 101 20 88 60 295
388 -5.8701188270466753 4.5060339878533515 16.781126161624663 151 152 148 2.4006701102121166 20 5 60 7 16 10 21 5 24 4
392 -3.0266408078781097 0.11468760098976699 32.381253136929743 187 176 158 0.72089427402267114 19 66 60 31 16 39 21 29
394 -3.9225644283020995 3.9134395627176013 18.622120179753235 157 159 167 0.41014202698931979 20 46 60 57
396 8.1444257988156163 7.9560253668886247 15.85088271400774 147 153 165 1.9880957582924643 19 213 60 77
398 6.0975184841747998 7.4217611606436007 25.201486161505144 188 186 181 0.23120605730164798 19 215 60 89
399 2.9571298520713576 6.3933246471551808 22.077993514715924 215 209 209 0.52267531551951452 19 98 60 91
400 -2.0279570760369716 6.7988278557644204 16.621004440944404 93 83 91 1.52081929946195 20 62 60 119 21 103
402 -2.5258163928900559 -2.8470892987075267 35.598784477098988 196 186 175 1.466666230247313 19 225 60 153
404 10.272682025031948 7.5896338873758138 16.696004905778253 91 94 109 1.0134625978594693 19 505 60 180
408 10.032585350707775 7.1128811842673993 16.559398016541131 173 180 207 0.29766153810779111 19 504 60 230 21 135
410 6.9490591561457986 12.794397408265455 20.838599337381286 204 208 219 0.70609027203451846 19 527 60 237 21 163
412 -3.4505926107805873 8.1434387901833656 10.84252653613385 146 164 178 1.4351988151477122 19 523 60 268
414 -0.93159607691755886 8.9035364545565816 11.233116909721373 238 249 235 1.0450648417591062 19 529 30 157 21 210
416 9.804681316988809 9.4619609499260786 16.401028283921768 218 220 219 0.56249960168399682 20 3 60 5
417 9.4469489293435718 6.1034401312281767 18.128393023686826 58 60 81 1.1760427378425033 19 735 16 713
420 -5.9785220551567706 3.3168016370577322 17.495702744021504 222 215 199 1.4762059424103198 19 93 16 47
421 -13.253173797204566 2.2665583274412606 21.261568594863153 192 185 169 1.8330992438125511 19 243 16 50
423 1.9505740328974226 -1.7261434115341847 37.586772561657057 206 198 186 2.1924836317258314 19 222 60 64 16 84
424 -3.3966986932538865 -1.2274657490331515 31.828112691295502 194 167 146 1.1095760010917877 19 150 60 65 16 87
426 10.013378194562289 1.4308988146361092 33.398290090387327 223 213 201 1.3676503641382538 60 156 16 233 30 89
428 8.9850167097426166 -3.8830533595884047 39.190938362201209 164 161 154 0.50684357803808944 19 276 16 283
430 8.1041355650500364 -0.36031065373847926 17.06374419383015 192 192 191 1.9569486604604895 19 407 16 287
431 -2.7026689047243502 -5.6936125637454129 27.848801290853341 38 19 17 1.1678772347561392 19 580 16 334
432 -3.8098781721325734 -1.6269345326158358 33.853044149990005 185 166 149 0.22526708397955786 60 188 16 402 21 111
434 -0.65881703910069911 -4.332703122566782 33.598549666132584 157 128 120 2.9902350762376511 19 471 16 588
436 -4.66551406652097 3.0421659575861275 17.154541280809191 212 209 194 0.43077965896185622 19 22 16 24
438 -1.9088160253960043 5.6788041084214917 15.892587764772403 64 65 71 0.90640388641956537 60 1 21 0
440 -5.6077272886452567 10.259142352629768 15.875825239464103 145 144 142 0.83391946473234069 60 6 21 4
442 9.7432882880495892 8.2636119881899255 15.592163701806442 219 220 214 1.869080914897068 60 11 21 9 24 17
443 1.8180877125485857 9.2883669800103981 11.620700093034001 137 135 136 1.5141966835031864 60 17 21 13 30 14 24 10
444 7.5412171178056289 16.667736061440792 16.18907011655434 218 229 247 1.7219604507998949 60 30 21 20 30 17 24 19
446 0.55059864326808461 9.2556675072914256 11.184657249619391 209 226 174 0.59242219078794467 60 35 21 32 30 40 24 22
448 0.12493970649539268 10.303435161033438 10.729651061717421 208 224 178 1.1672458851707956 60 34 21 40 30 29
449 8.2633983644978244 15.910148021508672 15.201104321217656 132 145 164 0.96674838279296982 60 137 21 43 30 92 24 58
450 4.767036926948764 8.6230865189807879 9.2073803143353601 141 144 151 0.6500463973515187 60 47 21 44
452 -2.3577312685009404 7.8456716483798399 12.188506314928535 253 182 150 0.40376752105053521 60 46 21 55 30 84
454 -2.2229397502491972 6.1712684680658141 15.564216489882188 124 124 128 0.13293375713717182 60 93 21 79
456 -0.38398422019848277 9.3284019809890157 10.941700036527948 192 188 188 0.41558047902468154 60 136 21 96 30 105 24 114
458 8.6443580857728435 16.097813353409823 17.396416284704525 145 155 164 0.1016057889869323 60 99 30 104
460 10.728319313357515 5.7543703430171496 16.154243781355497 0 44 82 1.662081864311127 60 179 21 131 30 149
462 -1.8451123741960047 8.7880534331668194 11.102101360384522 186 200 209 1.0621037802429025 60 191 21 149 30 127 24 71
464 7.8334512809427403 15.393845583393803 17.363236763946972 206 206 198 1.294435057681895 60 274 21 200 30 190
466 -1.9696472284226065 8.9573811139000075 11.319112182935543 176 190 199 1.0094477399724902 60 374 21 249 30 191
468 8.1419703914256036 7.0859832385079944 18.701986596881508 154 158 170 0.11573611909993772 60 14 30 10
470 2.9486417843570392 5.7586466838478954 18.563457557909675 192 189 182 1.6167984842017367 21 8 60 10 30 26
472 5.7025936873093102 9.8960520641200702 61.618786398739488 154 155 159 0.37503193804865093 21 153 30 43
474 -2.5142786553602985 -0.85732494338330223 27.888752249736893 207 199 180 0.086612932950634769 21 73 30 50
478 0.25380620471462273 -6.0187418207323384 54.916189781570893 173 157 144 0.58571428106066259 60 219 30 90
480 6.113748538621401 16.452246866811208 12.222723566203397 186 187 189 1.0336027741114835 21 56 30 110
482 -0.55104495872327375 8.3387588392385883 12.032067503086617 251 237 244 0.49466272508168219 21 88 30 122 24 63
486 5.9402984046536504 15.256123203250658 14.422128530986559 240 247 255 0.069642333634800643 30 161 24 86
